# .PCD v0.7 - Point Cloud Data file format
VERSION 0.7
FIELDS x y z intensity
SIZE 4 4 4 4
TYPE F F F F
COUNT 1 1 1 1
WIDTH 1351
HEIGHT 1
VIEWPOINT 0 0 0 1 0 0 0
POINTS 1351
DATA ascii
3.5755546 -6.9958134 0.74364048 27
3.6171107 -6.9830294 0.74442482 19.5
4.1118546 -6.9620275 0.76494133 21
4.295155 -6.9560809 0.77318621 26.333334
4.4971948 -6.9431133 0.78210515 24.833334
4.6308479 -6.8802509 0.7842986 25
-3.6696246 -6.7260823 0.70415884 19.5
4.6132164 -6.6810455 0.76926422 16.666666
-4.2762084 -6.43575 0.70801115 1
-4.1155648 -6.4230995 0.69974881 1.4
-3.8086252 -6.4061022 0.68507177 1
-3.7040336 -6.4961405 0.68768644 31.5
4.5999465 -6.4251256 0.75061291 17
4.6093626 -6.5318999 0.75857311 16.666666
-4.0092945 -6.3952808 0.6929158 3
-3.9022017 -6.3908849 0.6879189 10.5
-3.6792858 -6.3539476 0.67565894 23
4.5902901 -6.2994628 0.74137443 18
4.5699682 -6.096447 0.72629648 19
4.5881395 -5.9886303 0.71993411 36.5
4.7133136 -5.9722733 0.7258026 26.833334
4.9045625 -5.9689374 0.73642397 27.6
5.1029735 -5.9633298 0.74756247 22.5
5.2598557 -5.9480991 0.75584227 25.666666
5.1920328 -5.7754283 0.74076426 20.5
5.2215242 -5.746007 0.74067712 8
-3.7687001 -5.3063173 0.60083574 19.25
0.67469239 -4.9276319 0.6611715 1
5.1414642 -4.6937766 0.6720565 11
-3.8427458 -4.2276783 0.72423887 19
-3.7997391 -4.2514138 0.72308111 5
-14.04045 -3.830133 0.793823 25
-14.044383 -3.7020719 0.79225284 23.666666
-10.501977 -2.9226151 0.60243034 12
-13.677396 0.59482813 0.74808133 2
-13.668602 0.71159238 0.74792427 5
-13.666967 0.82876492 0.74818599 2
5.2371368 1.7553562 0.75530338 16.4
-11.87578 1.951973 0.66151762 2
-11.791871 1.8965386 0.65670276 8
5.2546792 1.8455595 0.76077938 13
4.1535382 2.35267 0.66073281 50.599998
4.3133278 2.2472434 0.67232257 18.75
4.5030537 2.2592621 0.69395435 16
4.6802483 2.2698381 0.71422523 14
4.8447442 2.3029191 0.73429304 1
4.1466141 2.4979162 0.66858113 48.400002
4.1318159 2.6953576 0.67930561 46.200001
4.1146746 2.8114953 0.68505788 20.5
6.2464104 2.9088058 0.66973233 1
7.4825382 2.9558394 0.77129787 2.6666667
7.4901896 3.0210836 0.7739706 1
11.549748 3.5946052 0.69270986 2
8.6813412 5.8987875 0.60704637 22
8.6721897 6.0951862 0.61237419 22
8.442174 6.2993698 0.60865831 5
8.6519709 6.241178 0.61584586 16.333334
8.4273853 6.5201473 0.61488628 4.5
8.3848133 6.6784554 0.61813116 7.25
8.3901167 6.8528957 0.62397534 7.3333335
8.4035883 6.9600148 0.62802261 8
8.4243917 7.051919 0.63189554 6
8.3932753 7.2726169 0.63800138 6
8.4657602 7.2468877 0.64005989 3.3333333
8.3930025 7.4891419 0.64534581 6
8.3863564 7.6411037 0.65031773 5
8.5679178 7.9103699 0.6668036 18
8.5692101 8.0763779 0.67269135 20
8.5527391 8.2918158 0.67973053 13.75
8.5428629 8.5114517 0.68729311 15.75
8.5331726 8.71313 0.6943149 17.666666
8.5258636 8.8880663 0.70052534 18.333334
8.5167074 9.098362 0.70807046 19
8.5041761 9.3062067 0.71549344 19
8.4979591 9.4968901 0.72257632 17.666666
8.4880095 9.6854935 0.72951955 17
8.4779367 9.8803644 0.73677677 16
8.4682026 10.080132 0.74431306 17
8.4593792 10.28073 0.75198907 13.333333
8.4491682 10.489347 0.76001388 13.333333
8.4252195 10.610217 0.76409614 10
-3.4838157 -10.108391 0.97286004 1
-12.632695 -7.9088078 0.81391996 14.666667
-12.500208 -7.9448376 0.80910504 8
-12.347474 -7.9357128 0.80214435 8
-12.651592 -7.7095122 0.80918354 13.75
-7.8190145 -7.6204395 0.98314446 1
-12.664509 -7.4831634 0.80355746 12.5
-7.9121571 -7.5525241 0.98471326 1
-7.6897893 -7.5687594 0.9719885 1
-7.5200825 -7.5519271 0.96060014 1
-7.3190451 -7.5482016 0.94828212 1
-7.0761728 -7.5460372 0.93377942 1
-6.8592529 -7.489079 0.91742897 1
-6.7787485 -7.4985428 0.91341984 1
-6.4311228 -7.5102315 0.89459419 1
-6.2908912 -7.4701133 0.88413548 1
-5.2483654 -7.4119773 0.8259154 1
-5.0959611 -7.5214214 0.82661265 15.333333
-12.687266 -7.3519368 0.80104536 12
-5.4369698 -7.3854184 0.83332372 7
-5.3081422 -7.3611798 0.82517457 13
-2.4322357 -7.362143 0.98696882 26.333334
-2.2870564 -7.3337007 0.97876304 28.142857
-2.0955894 -7.331265 0.97253031 28.714285
-1.9030622 -7.3157096 0.96525288 27
-1.7033844 -7.3060341 0.95908117 29.75
-1.5031444 -7.2895708 0.95268297 32.285713
-1.3074751 -7.2804456 0.94789964 28.5
-1.1938761 -7.3031435 0.94878316 1
-0.48919314 -7.2312727 0.93330574 28.75
-0.28906015 -7.2160625 0.93105114 31
-0.10890207 -7.2061152 0.93005592 29.833334
0.026332557 -7.223424 0.9326964 1
-13.845765 -7.1667881 0.84929907 2
-13.660131 -7.1585445 0.84050667 2
-13.481951 -7.1525173 0.83213288 2
-13.291979 -7.1379442 0.82302642 4
-13.095503 -7.1178637 0.8135013 2
-12.920538 -7.1074939 0.80523217 4
-0.025837049 -7.1935854 0.92879659 28.5
1.3164641 -7.1193752 0.94073981 26.666666
1.4958363 -7.1087532 0.94454819 28.875
1.7029026 -7.0925956 0.94911826 29.625
1.9029144 -7.0909004 0.95581675 30.714285
2.1022854 -7.0773468 0.96173173 27.5
2.3046796 -7.0681238 0.96887416 27.714285
2.4961545 -7.0531898 0.97548991 28
2.6944752 -7.0490146 0.98419487 25.857143
2.8932948 -7.0366187 0.99255168 25.142857
3.0212448 -7.0259066 0.99789655 26.5
-3.6468956 -6.9104319 0.98912185 13.75
6.3921099 -6.8730192 0.88274097 1
6.5024343 -6.8426752 0.88762176 1
6.649271 -6.8000097 0.89407128 3
6.8838501 -6.8046265 0.90912014 12
-13.847077 -6.6602983 0.83731413 23
-4.134902 -6.6077528 0.98461276 13
-3.6576853 -6.6973085 0.9662714 14.5
6.5017796 -6.7941666 0.88457125 1
6.9141731 -6.7947845 0.91045654 9.5
7.1059732 -6.7848692 0.92213541 9
7.3151751 -6.7847319 0.93568814 7
7.4379201 -6.7762613 0.94322711 3
7.7384033 -6.7497063 0.96164602 12
7.8360162 -6.7365837 0.9674564 12
-13.863243 -6.4926686 0.83425248 23
-4.2551336 -6.5226002 0.98321122 4.75
-4.0863366 -6.5686831 0.97750372 13
-3.922462 -6.5795708 0.96870881 18
-3.6956031 -6.5706239 0.95455164 28
-13.876534 -6.2959919 0.83049303 23
-3.6694763 -6.3569984 0.92985278 17
5.8692079 -6.2026601 0.808833 1
-13.889335 -6.1011348 0.82687306 24
4.56425 -6.0493584 0.99619031 14
6.0103664 -6.1082544 0.81179619 1
-13.904736 -5.9091258 0.82354975 23
4.5763893 -5.9783964 0.99034059 25.5
4.6548038 -5.9684753 0.99549967 20.333334
-13.915989 -5.7170734 0.82014799 23
-13.928782 -5.4940429 0.81632745 24.5
-13.941523 -5.2793646 0.81282091 23
-3.7571669 -5.3048873 0.82415146 18.333334
-13.960128 -5.1000571 0.81039596 23.666666
0.50383246 -5.0785828 0.85877216 1
-13.973236 -4.9138317 0.80769193 25
0.50930655 -4.9977732 0.84625745 5
0.68637043 -4.9506483 0.84375453 1
-14.00325 -4.6304083 0.80429012 4
-13.978078 -4.7287459 0.8047089 25
5.1297727 -4.6863842 0.92335302 4
-3.839788 -4.2361917 0.92190915 24.4
-9.9762716 -3.1762261 0.93808484 2.5
-9.0253143 -2.1235313 0.83278334 19.200001
-8.9995375 -2.0220418 0.82853013 17
-9.0502672 -1.8724562 0.83002919 17.200001
-8.988615 -1.9714954 0.82661271 17
-9.0532732 -1.6981651 0.82725173 18.833334
-9.0803022 -1.4970913 0.82643837 22.142857
-9.0884161 -1.2933949 0.8243466 22.833334
-9.0994902 -1.1060203 0.82309741 26.333334
-9.111515 -0.90475994 0.8221553 36.285713
-9.1200781 -0.70266467 0.82129622 32
-9.1537333 -0.50282037 0.82305187 28.714285
-9.1833458 -0.30181512 0.82484055 30.333334
-9.1742325 -0.099464901 0.82364935 21.571428
-9.2192516 0.13446596 0.82761496 22
-9.1798801 0.039835066 0.82408512 20.5
-9.2358904 0.29046121 0.82940167 31.666666
-9.2195597 0.5551033 0.82905304 1
-9.1956978 0.58488828 0.82713562 8
-9.2142162 0.71948344 0.82961959 17
-9.1982975 0.647663 0.82774568 15.5
-9.2392759 0.88741493 0.83312035 11
-9.2583284 1.0641505 0.8364439 1
-10.411201 1.9631641 0.94828212 1
-10.392558 1.9962198 0.94723624 1
4.1734204 2.3275917 0.84022361 64.14286
4.3238468 2.2508779 0.85595644 25
4.4916821 2.262109 0.88067299 21
4.6668277 2.2721803 0.90648466 19.25
4.1522212 2.4993052 0.85026217 64.300003
4.1407304 2.6989572 0.86471671 62.299999
4.1307573 2.8196561 0.87347704 41.5
8.8249102 3.3411579 0.89311254 1
8.6815624 5.8958354 0.9831444 18.200001
8.6676235 6.0886326 0.99151134 17.5
8.3831606 6.3446569 0.98410314 6.5
8.4568357 6.2607298 0.98501825 3
8.6536379 6.2376466 0.99790281 15
8.3845444 6.5087457 0.99276638 6
8.3785706 6.6446176 0.99952972 6
-10.854432 -7.8566194 1.1978961 7
-10.685937 -7.8456063 1.1855199 6.3333335
-10.472291 -7.827076 1.1696576 8
-10.292104 -7.8275781 1.1572235 10
-10.090731 -7.8073692 1.1422908 8
-9.8800926 -7.8054476 1.1278229 7.5
-9.9658461 -7.7913003 1.1328779 8
-9.256671 -7.7524333 1.0830249 7
-9.1302156 -7.7480302 1.0744253 9.333333
-8.9863596 -7.7285371 1.0638505 10
-8.4407263 -7.6090078 1.021493 1
-8.3177719 -7.6291351 1.0148691 1
-8.1415577 -7.6201591 1.0031903 1
-2.7611065 -7.6351242 1.0309231 8
-8.6673861 -7.5551648 1.0329393 7
-8.5026255 -7.5625973 1.0227132 4
-5.0726657 -7.5086412 1.139082 14
-4.9623618 -7.5038433 1.1313434 15.5
-3.5002327 -7.4130101 1.0376432 26.571428
-3.3160045 -7.4074469 1.0281932 26.200001
-3.1488204 -7.4009914 1.019833 26.5
-2.8600371 -7.4954057 1.018533 23
-2.7891836 -7.5883069 1.0265359 23
-2.5510087 -7.5211401 1.0098397 14
-5.4274902 -7.3663116 1.1487707 4
-5.2906599 -7.357676 1.1383631 8.8000002
-3.6173463 -7.2971249 1.0304966 13.5
-3.2210093 -7.3950076 1.0223923 26
-3.0816622 -7.3868179 1.015275 22.799999
-2.9494216 -7.3793392 1.0087428 23
-0.49192816 -7.2392445 1.1921339 22.75
-0.29159871 -7.2244439 1.1892791 24
-0.095477439 -7.2121582 1.1876868 24
0.060551345 -7.2111158 1.1883795 23
0.60439348 -7.2259493 1.1979221 2
-3.633213 -7.1031194 1.0097178 13.666667
-0.052756518 -7.1968184 1.1854074 24
0.059904441 -7.1983786 1.1863459 24
0.69824094 -7.1656084 1.1903687 20.571428
0.80045497 -7.1714172 1.193542 2
1.3117728 -7.1082478 1.1985478 8
3.1320238 -7.0698895 1.008621 18.75
3.2909327 -7.0814986 1.018533 15.166667
3.475394 -7.0774231 1.0284857 15
3.5681267 -6.9861178 1.0240171 21.333334
3.653008 -6.9942236 1.0299481 8.5
4.1163197 -6.9476953 1.0542001 18.166666
4.3127508 -6.9353127 1.0660214 20
4.5037374 -6.9309311 1.0786959 20.200001
4.6257944 -6.8769264 1.0818644 19
4.6140943 -6.6862874 1.0620403 13
4.5920968 -6.4661894 1.0387226 13
4.6057639 -6.5162358 1.0446535 13.666667
-3.672143 -6.3566451 1.1865546 6.6666665
4.5856991 -6.2981529 1.0218438 14.5
4.5747647 -6.1500139 1.0066711 15
4.7594485 -5.9681835 1.0037056 19.333334
4.8951802 -5.9618874 1.0139588 15
5.0930638 -5.9558301 1.0295013 14.5
5.2384219 -5.929203 1.0391289 6.3333335
5.1834397 -5.7694244 1.0201986 2
5.2035093 -5.7311783 1.0184923 1
-3.7593148 -5.3041329 1.0501437 25.333334
0.563501 -5.3552995 1.0986472 6
0.59146088 -5.0761776 1.0459839 6.6666665
0.74852467 -5.0448718 1.0456024 1
0.66638339 -4.9913821 1.0323547 14
5.1402545 -4.6982446 1.1805058 15.333333
-3.8333387 -4.2421522 1.1212901 12.333333
-9.0165644 -2.054976 1.1475925 16
-9.0449543 -1.9005691 1.1468382 15.714286
-9.0665274 -1.6976161 1.1444241 18.666666
-9.0717888 -1.5082308 1.1408898 16.833334
-9.0904598 -1.3062497 1.1392473 20.142857
-9.1023245 -1.1034846 1.1373149 22
-9.1110392 -0.90181684 1.1355914 24.142857
-9.1291304 -0.70055485 1.1355681 25
-9.1411848 -0.49946356 1.1353824 19.142857
-9.1623869 -0.29823995 1.1368681 21
-9.1890278 -0.096676946 1.1395957 17.428572
-9.1740446 0.10529577 1.1377618 17
-9.2234888 0.2926802 1.1443428 22.5
-11.831439 1.9465861 1.0703001 1
-11.775257 1.8958641 1.0647222 1
4.1494131 2.3474627 1.0185839 63.200001
4.2854691 2.2499371 1.033486 22.25
4.5040097 2.2667468 1.0731552 18.200001
4.7125988 2.2815173 1.1111134 12.666667
4.146215 2.4944005 1.0317879 56.5
4.1315551 2.6918387 1.0487697 57.5
4.1240673 2.8142645 1.0601039 31.5
7.4376392 2.9511502 1.058953 3.5
7.5442109 3.038959 1.0750397 1
8.3828592 6.7453752 1.0052239 6
8.3644247 6.8521576 1.009727 5
8.4069586 6.960227 1.0185295 4
8.3913488 7.1488175 1.0278844 4.6666665
8.4106188 7.0382071 1.0230618 6
8.3878736 7.2971587 1.0359608 5.3333335
8.3796015 7.4999266 1.0469424 5
8.3949165 7.6701584 1.0577497 6
8.5624361 7.9273376 1.0836639 14.666667
8.5607195 8.0933752 1.0933092 15.666667
8.5497246 8.2846365 1.1039858 16
8.5418816 8.5053024 1.1167977 16
8.5340729 8.7089319 1.1287526 17
8.522357 8.8804016 1.1386303 17
8.5090847 9.0856886 1.1506577 16.75
8.503087 9.3017836 1.1639634 16.333334
8.486867 9.4805002 1.1744221 17
8.478735 9.704813 1.1884397 16.25
8.4735384 9.8706207 1.1989419 16
-12.633335 -7.9670763 1.3314186 2
-12.505199 -7.9450464 1.3209599 2
-12.295924 -7.9287548 1.3048652 2
-12.056208 -7.9161882 1.2867949 3
-11.905816 -7.9039235 1.2752905 2
-10.926926 -7.8557897 1.2029511 1
-2.757792 -7.6634345 1.3208796 1
-12.747952 -7.5002594 1.3183453 2
-6.8272576 -7.5239081 1.2700306 1
-6.4090834 -7.4514999 1.2300576 1
-6.3051491 -7.4567852 1.2225018 1
-3.0687659 -7.4163942 1.3002303 1
-2.8827844 -7.488049 1.3009007 2.2857144
-2.7762113 -7.5846629 1.3099293 4
-2.5345399 -7.5062089 1.2865683 8.333333
0.23737094 -7.4037833 1.2204487 10
0.42786357 -7.5071821 1.2392207 2
-12.669411 -7.2801805 1.3025992 5
-3.135509 -7.3973269 1.3011689 1
-2.9414921 -7.3896914 1.2892798 2
-2.4151998 -7.3420877 1.2562721 18
-2.2928517 -7.3453064 1.2515122 22.285715
-2.0986159 -7.3331285 1.2418578 24
-1.8926114 -7.3179379 1.232064 28.5
-1.6934253 -7.3095083 1.2243372 30.857143
-1.4946898 -7.3018169 1.2175546 33.25
-1.2984955 -7.2902727 1.2110178 35.714287
-1.1948864 -7.2905984 1.2088726 2
0.15586971 -7.3258324 1.2073082 24
0.21125615 -7.3817883 1.2166942 22
0.46590111 -7.3599 1.2165899 18
1.9494549 -7.2044039 1.2392207 2
-13.820974 -7.150672 1.3851066 2
-13.652458 -7.1514492 1.3721204 6
-13.470265 -7.1432185 1.3577397 7
-13.287695 -7.1326332 1.3432719 2
-13.129944 -7.1340427 1.3312443 2
-12.917002 -7.1025953 1.3136389 2
-12.706982 -7.128118 1.2987642 14
1.3358947 -7.1216054 1.2014679 8
1.4931509 -7.107841 1.2051182 4.5
1.6788353 -7.1193476 1.2143165 2
1.8758529 -7.15065 1.2277073 2
2.9481046 -7.0993242 1.2798938 2
3.0953045 -7.0616117 1.2843261 3
3.3022163 -7.0790105 1.3012583 8.7142859
3.4995632 -7.0693889 1.3143094 12.333333
3.5713978 -6.9969306 1.3096163 20
3.6288211 -6.9853916 1.3124322 13
4.1010866 -6.955802 1.3465974 17
4.2818317 -6.9455795 1.3607183 19.666666
4.4850063 -6.9345036 1.377196 21.666666
4.6297979 -6.8869953 1.3841573 23.75
6.4955864 -6.9356914 1.2350949 1
7.3567162 -6.8022976 1.3002542 1
-13.855392 -6.6614408 1.3683727 27
-4.302721 -6.6082144 1.2707423 21
-4.1074419 -6.6087155 1.2550207 23
-3.8916984 -6.600225 1.2370307 8
-3.6673012 -6.6835952 1.2321291 2
4.6192918 -6.6975207 1.3588411 16.666666
7.3448887 -6.7916069 1.2983044 1
7.4237127 -6.7685418 1.3036666 1
7.7282348 -6.7443261 1.3300717 4.3333335
7.8500686 -6.7290893 1.3403494 5.5
-13.862276 -6.489244 1.3623589 28.5
-4.25565 -6.5958753 1.2651889 22
-4.1012821 -6.5976992 1.252987 22
-3.947264 -6.592813 1.2402636 20.666666
-3.7000167 -6.5734773 1.2189887 7.3333335
4.6099982 -6.5186234 1.3351934 18.5
-13.866155 -6.2883401 1.3551832 27
4.5919666 -6.3096271 1.3071134 20
-13.88766 -6.0975285 1.3499829 27.75
4.5752916 -6.1113639 1.2807541 21.5
-13.896304 -5.9026313 1.3437948 26.666666
4.5847769 -5.9930201 1.2670661 30
4.7075329 -5.9720287 1.2768693 24.333334
4.9145141 -5.9669666 1.2975187 22.666666
5.1061664 -5.9530244 1.3159988 21.6
5.282505 -5.9389734 1.3332691 19.799999
-13.902107 -5.7084479 1.3376068 26
-13.924161 -5.4894581 1.332116 27
-13.936416 -5.3013597 1.3270609 26.666666
-3.8119104 -5.3011203 1.2837319 1
-3.7578859 -5.299973 1.2777534 1
0.13895015 -5.2766175 1.2670091 2
0.24484497 -5.2833018 1.2706457 1
-13.943485 -5.1162777 1.3218751 26
0.73507178 -5.122489 1.2504002 4.5
-13.961277 -4.9055042 1.3169944 27
-13.977663 -4.6992388 1.3123753 27.5
-13.990244 -4.4905815 1.3076251 16.5
-14.013259 -4.2602925 1.3034128 17
-13.997804 -4.3607144 1.304749 11
-3.8271039 -4.2165308 1.317863 5.8000002
-14.013457 -4.0770483 1.2987788 23.5
-14.027134 -3.8756256 1.2950312 26
-14.038386 -3.6979151 1.29185 25
-14.048706 -3.5464351 1.2893515 23
-10.646806 -2.5128 1.3553393 1
-13.6685 0.59677547 1.2179419 2
-13.658107 0.71515048 1.2175497 1.75
-10.427958 1.9700866 1.3148786 1
-10.378177 1.9970466 1.3095163 2
4.1644235 2.336452 1.3334397 45.700001
4.2916245 2.2477684 1.251259 17.166666
4.5245671 2.2642851 1.2701958 12
4.6777048 2.2736149 1.3031511 12
4.1434836 2.4871395 1.244467 37.846153
4.1274414 2.7082815 1.2383653 32.700001
4.1155272 2.8174517 1.2493879 14
7.4492707 2.9679713 1.355608 7
7.4867411 3.0135033 1.3637426 1
8.8277636 3.1436355 1.2274578 1
10.055836 3.172014 1.3719134 1
8.7968197 3.3807659 1.2337136 1
8.8168354 3.2820733 1.2318611 1.2
8.8053961 3.4201105 1.2363948 1
8.793045 3.6883986 1.2469974 1.5
8.8885937 3.7271471 1.2596718 1
8.9340115 3.8387656 1.2700306 1
8.6747169 5.7984214 1.3543643 13
8.6760883 5.9104118 1.3620421 16.25
8.6601868 6.1024079 1.3735709 14.6
8.660183 6.3093777 1.3880612 15
8.624773 6.4468255 1.3943373 6.3333335
8.465044 9.9657364 1.2046943 15.5
8.4576225 10.095062 1.2127998 15.5
8.4491243 10.301537 1.2260474 17
-10.207483 -7.8129382 1.5966406 6
-10.127056 -7.8026948 1.5881097 6
-10.040788 -7.7900014 1.5788476 6
-9.907506 -7.7941742 1.5664169 5.6666665
-9.2635851 -7.7527814 1.5024762 4.3333335
-9.0907545 -7.7362509 1.4851301 10.5
-8.9972506 -7.7327528 1.4762336 11
-8.6717443 -7.5537834 1.4317919 6.3333335
-8.5062895 -7.5607057 1.4173301 2.6666667
-6.4482136 -7.4937091 1.582751 1
-6.3080602 -7.4550381 1.5639788 1
-5.0871449 -7.5261641 1.4598716 19.25
-4.970674 -7.5128112 1.4482174 20
-3.2741699 -7.4040966 1.5978036 18
-3.1397815 -7.4045339 1.5882632 20
-2.8504527 -7.49544 1.5855919 19.4
-2.7846253 -7.5612869 1.5936058 17
-2.5143719 -7.4798212 1.5626948 17
0.26396772 -7.4664617 1.5001094 1
0.44317421 -7.4059949 1.4913322 11
-5.4393625 -7.3778405 1.4713695 4
-5.2967596 -7.3610168 1.4563519 11.8
-3.609308 -7.2355833 1.5936058 12
-3.2222581 -7.3868914 1.5909345 19
-3.0984709 -7.3858356 1.5820299 19.333334
-2.937098 -7.3733664 1.5688008 16.75
-2.4190135 -7.3503714 1.5333102 18
-2.2916033 -7.3323669 1.5232245 20.285715
-2.0980721 -7.3239136 1.5121031 22.142857
-1.9072554 -7.3156424 1.5020176 20.714285
-1.7067747 -7.3031893 1.4916661 24.125
-1.4950428 -7.2947607 1.4826981 25.625
-1.2982684 -7.2792358 1.4738867 24.428572
-1.1951783 -7.2827063 1.4718697 5
-0.49317729 -7.2374601 1.4525026 22.75
-0.292826 -7.2161798 1.4477323 25.375
-0.13007465 -7.2123709 1.4472554 24.25
0.15260401 -7.306479 1.467672 20.333334
0.22032802 -7.3720765 1.4812193 16
0.50899333 -7.2937951 1.4709538 24.200001
-3.6222005 -7.1011739 1.570995 11.5
-0.054341163 -7.1962538 1.4444886 24.5
0.058108576 -7.1929641 1.4446795 21.5
0.58333117 -7.1676655 1.4482093 26
0.70597911 -7.1422839 1.4463966 17.625
0.86126184 -7.1480527 1.4518982 8.333333
1.1981468 -7.1331444 1.4608028 11
1.3285996 -7.1151218 1.4627744 18.333334
1.5042809 -7.1064882 1.4690348 25.714285
1.6987318 -7.0919523 1.4759721 25
1.8992653 -7.0929098 1.48708 25.285715
2.0968518 -7.0740752 1.4953392 22.75
2.2983963 -7.0623145 1.5061063 22.285715
2.4921021 -7.0547094 1.5180455 20.285715
2.6872194 -7.0420184 1.5300392 17.571428
2.8997993 -7.0280991 1.5440909 18.75
3.0981843 -7.040204 1.5624658 16.4
3.2966676 -7.071588 1.5849923 15
3.4383619 -7.0762739 1.598376 10.5
-3.636075 -6.9093575 1.5385256 11
6.3479571 -6.9090142 1.5608501 13
6.5014892 -6.8743329 1.5738863 17.666666
6.6952362 -6.806684 1.5880697 16
9.4771423 -6.9205627 1.5132819 1
-4.278399 -6.6048608 1.5462852 16.5
-4.1075168 -6.605793 1.529494 16
-3.6429505 -6.7161674 1.5054522 12.25
9.0782785 -6.6867237 1.4567345 1
-4.2997155 -6.5963478 1.5470486 13
-4.0997787 -6.5914917 1.5263773 17.166666
-3.9148993 -6.5848298 1.5075128 15
-3.7016518 -6.573658 1.4859895 17.6
4.5852509 -6.260499 1.5855918 11
4.5796041 -6.1194968 1.5633626 11
4.5724473 -5.9799709 1.5413241 17
4.6938434 -5.9592175 1.5532179 15.333333
4.9007745 -5.9536262 1.5784683 15.166667
5.0381956 -5.9416866 1.5943691 15.5
0.21973616 -5.4369421 1.5078454 6
0.12893447 -5.1297383 1.4237808 7.5999999
0.23894818 -5.1504745 1.4319249 9.333333
0.84742332 -5.1788311 1.4648813 1
-11.77221 1.9201189 1.4762337 1
4.3299365 2.2586918 1.419329 19.333334
4.5003066 2.2712455 1.4619049 17.25
4.6815124 2.2840445 1.5073276 15.333333
4.149653 2.5126939 1.4084588 46.625
4.1412306 2.693953 1.431183 48.5
4.1348009 2.8276691 1.4486619 25
8.7843819 3.055644 1.5592858 1
8.8313513 3.1150424 1.5693758 1
8.8251495 3.2994893 1.5781622 1
8.8231554 3.423171 1.5846281 1
11.479585 3.5665543 1.5532551 1
8.8044901 3.7087388 1.5983944 1
8.6435738 6.5558395 1.4040869 1
8.5987434 6.616395 1.4040869 1
8.6432257 6.7225008 1.416274 1
8.6239557 6.904429 1.4279734 14.5
8.5787373 7.1692929 1.4438164 5.5
8.6182261 7.0745931 1.4403229 15.333333
8.5785294 7.5346775 1.4724557 7
8.5846748 7.6994352 1.4862269 14.5
8.5698137 7.9024582 1.5013387 13
8.5612755 8.116621 1.5182177 13
8.5550909 8.3140173 1.5341622 13
8.5439358 8.5028744 1.5491724 13
8.5292931 8.6991186 1.5647107 13
8.4750843 8.8893795 1.5765564 10.6
8.4146366 9.0105696 1.5820162 8
3.6960886 11.577996 1.5478928 1
-12.049732 -7.907361 1.786513 6.5
-11.892506 -7.8919158 1.7694513 6
-10.888165 -7.8500319 1.6658623 3.5
-10.722648 -7.8396111 1.6488006 5.5
-10.505956 -7.8188148 1.6260518 5.3333335
-10.317213 -7.8144035 1.6073651 6
-8.1690559 -7.6362224 1.7845514 1
-2.762733 -7.6242838 1.6039095 8
-7.8712363 -7.5561075 1.7420012 1
-7.6828618 -7.5773582 1.7233856 1
-7.4822769 -7.5546403 1.6987209 1
-7.2816038 -7.5516615 1.6766115 1
-7.0660663 -7.5258789 1.6505393 1
-6.9372077 -7.5403066 1.6386503 1
-6.7698436 -7.48036 1.6140379 1
-5.0863442 -7.5204473 1.7804078 11.75
-4.9682903 -7.504591 1.7655249 18
-3.5042851 -7.4118257 1.6165575 19.571428
-3.3233366 -7.4137292 1.6031463 17
0.25854984 -7.4094124 1.7600268 0
-5.4230981 -7.379282 1.7939553 1
-5.3081841 -7.3749604 1.7805986 1
-3.6054463 -7.3280191 1.6096338 12.5
-3.3607192 -7.3961091 1.6027646 17
-2.2355459 -7.3246713 1.7955691 16.666666
-2.0999227 -7.321322 1.7870209 17.428572
-1.8946848 -7.3060322 1.7727367 16.75
-1.6951498 -7.297925 1.7615051 16
-1.4965672 -7.2882137 1.7511411 18.625
-1.2997171 -7.2711005 1.7402954 17.428572
-1.1566713 -7.2994132 1.7424806 1.6666666
-0.49523923 -7.2230778 1.7134057 16.25
-0.29532117 -7.2142282 1.7106127 18
-0.12334337 -7.2066684 1.7091879 13.333333
0.1070039 -7.266283 1.7249342 11.333333
0.21818903 -7.3594646 1.7478795 13
-0.29525852 -7.1986074 1.7069384 17.5
-0.077850997 -7.1894698 1.7054985 16
0.067211948 -7.1800733 1.7045388 15.666667
1.3430649 -7.1246586 1.7317954 12.5
1.4995459 -7.0980453 1.7341896 17.428572
1.6953747 -7.0894918 1.7438302 17.375
1.9053382 -7.0759411 1.7544593 16.625
2.1059191 -7.0691342 1.7671611 15.571428
2.2939515 -7.0566444 1.7787942 16
2.4870219 -7.0479531 1.7926768 16.142857
4.0943365 -6.948709 1.6405449 9
4.5314212 -6.9275999 1.683973 13.2
4.6349163 -6.8729033 1.6868478 15.333333
6.993341 -6.8066516 1.6221725 7
7.4605069 -6.8032846 1.6766115 1
-3.6433821 -6.7126732 1.7789227 7.75
4.6265392 -6.6866784 1.6565728 11
6.8801041 -6.7932677 1.6076761 7.6666665
7.0937524 -6.7825842 1.6312456 7
7.2904782 -6.7715769 1.6531465 3
7.7375731 -6.7569566 1.7050828 3.6666667
7.8452821 -6.7514672 1.7175975 1
-4.0371647 -6.5856109 1.796019 15
-3.906538 -6.5641923 1.776943 11.2
-3.7124605 -6.551878 1.7532034 12.166667
4.5978103 -6.4339552 1.6138315 11
4.6087422 -6.519105 1.6283331 11
4.6051483 -6.374063 1.6054361 11
5.1260991 -5.9372849 1.6051817 15
5.2681112 -5.9260297 1.6223036 15
-14.020782 -3.8427486 1.7974813 21
-14.021585 -3.7139599 1.7933986 21
-14.035551 -3.5123529 1.7887677 21
-14.07302 -3.3939075 1.7896817 7
-14.285893 0.70336717 1.7675014 19
-14.300999 0.89998984 1.7707309 19
-14.30174 1.1050472 1.7726198 13.333333
-14.294384 1.2194481 1.7728636 3
-13.598088 1.2057548 1.6875551 1
-13.23805 1.2188056 1.6436822 6
-13.175476 1.3266267 1.6373448 16.5
-13.178377 1.5092661 1.6401479 21
-13.185492 1.6243924 1.6427072 11
-10.387278 1.965856 1.6766115 1
-10.39198 2.0034447 1.6784889 1
7.4427032 2.9639025 1.6519933 1
7.4561038 3.0000577 1.6569544 1
9.3034859 3.1378045 1.6414139 5
9.4950371 3.1459899 1.6706671 7
9.7053986 3.1559992 1.7028925 3
9.9217329 3.1659265 1.7360567 1
10.043594 3.1662872 1.754516 1
8.8688116 3.7094147 1.6078848 1
8.8702154 3.8084235 1.6140379 1
8.6790876 5.8861055 1.7421888 19.6
8.6725397 6.1067019 1.7607734 21
8.661973 6.3064995 1.7774336 21
8.6523972 6.4629245 1.7906002 9
8.4888525 9.1512432 1.6007842 12
8.5027971 9.2949667 1.6147585 15
8.4912224 9.4796667 1.6303577 13
8.4797678 9.665062 1.6462008 14
8.4675531 9.892787 1.6660452 14
8.4629965 10.131141 1.6877176 12.666667
8.4446545 10.288763 1.7009606 13
8.4376745 10.501755 1.7204599 12
8.4256105 10.70953 1.7392278 10
8.4155283 10.890058 1.7557207 9.666667
8.4064684 11.108844 1.7761135 10
8.3969412 11.256172 1.7896817 8
-12.614599 -7.8578191 1.8412324 11
-12.533668 -7.9269667 1.8374543 7.5
-12.336961 -7.9197764 1.8167366 7.5
-12.194448 -7.915884 1.8018686 8
-12.634146 -7.6896577 1.8322749 13.5
-9.2691326 -7.7522392 1.9256552 8
-9.1031342 -7.7428236 1.9048495 8.5
-8.4393749 -7.6531367 1.8174027 1
-8.3141317 -7.6418629 1.8017592 1
-2.7100296 -7.684484 1.906065 3.5999999
-12.645733 -7.4896855 1.8206364 9.333333
-8.6808119 -7.556551 1.8352362 7.6666665
-8.4953957 -7.5731454 1.8152908 3
-6.7815118 -7.4885173 1.9733158 1
-6.406538 -7.5472116 1.935154 1
-6.3012671 -7.4707732 1.9107305 1
-5.5289731 -7.4753108 1.8210502 1
-3.506372 -7.4097161 1.9112839 22.799999
-3.3674994 -7.4050989 1.897697 21
-2.8487856 -7.4839225 1.8721424 18.799999
-2.7696929 -7.5493383 1.8806005 12.5
-2.5255508 -7.5077586 1.8545063 15
-12.659676 -7.297852 1.8100339 8.5
-3.6018102 -7.2460461 1.8857745 11.5
-3.5316737 -7.3736629 1.906095 15.666667
-3.2707036 -7.3879843 1.8855495 23
-3.1048398 -7.3820343 1.8702527 22.857143
-2.9378328 -7.367424 1.8536065 19
-2.4190993 -7.341115 1.8106408 15
-2.3373673 -7.3401642 1.8052418 16
-0.49801165 -7.2316055 1.9836842 23.5
-0.29788646 -7.2190628 1.9794136 26
-0.098278046 -7.2080703 1.9770471 26.142857
0.10558534 -7.2387371 1.9873075 5.75
-13.823011 -7.1457019 1.9256879 2
-13.720869 -7.1519356 1.9149634 1
-13.516354 -7.1322551 1.8916862 1
-13.280801 -7.1229925 1.8657281 1
-13.052124 -7.1141391 1.840623 1
-12.855594 -7.0913291 1.8181992 1
-12.693213 -7.1144547 1.8022747 6.3333335
-3.615104 -7.0796733 1.8522568 9.25
-0.084117189 -7.1994138 1.9747548 26
0.028653547 -7.1887608 1.9729431 25.5
1.0811652 -7.1507759 1.9952016 6
1.2203172 -7.1397667 1.9996015 11
2.6962967 -7.036201 1.8083912 14.75
2.9082587 -7.0208044 1.8247484 15
3.0929892 -7.0357423 1.8458681 14.6
3.2915206 -7.0675149 1.8726951 14.285714
3.4448211 -7.0644517 1.8882489 6.6666665
-3.6312275 -6.8933339 1.8150648 6.6666665
4.519979 -6.9161186 1.9879471 15.4
4.6244302 -6.8387933 1.9872274 10.5
6.3516555 -6.8911433 1.9033524 9.333333
6.5072622 -6.8592215 1.9200418 10.4
6.6639223 -6.802474 1.9338183 6.5
6.8351665 -6.8020444 1.9576694 6
9.3319845 -6.8225961 1.9112633 1
-13.839159 -6.6476183 1.8997297 21
-4.3261337 -6.6001821 1.8329109 14
4.625102 -6.6896572 1.959446 9
6.5758982 -6.7869287 1.9195076 7
6.755003 -6.7961626 1.9456484 5
6.9162045 -6.7831936 1.9665738 8.666667
7.0867934 -6.779109 1.9902977 11
9.0703421 -6.6859803 1.8649588 1
-13.846187 -6.5048385 1.8928643 20.666666
-4.258153 -6.5921097 1.823163 13.333333
-4.1496735 -6.591888 1.8103034 13
4.6065955 -6.473968 1.9169302 9.75
-13.863226 -6.3100471 1.8845569 21
4.5869551 -6.2657366 1.8759891 10.5
-13.868465 -6.0832243 1.8735888 22
4.5734406 -6.0936103 1.8428087 8.333333
-13.884295 -5.8917851 1.8658906 21.333334
4.5682769 -5.9790773 1.8214384 11.5
4.6880984 -5.955709 1.8348604 14.666667
4.8945155 -5.950645 1.8648542 18.166666
5.1043005 -5.9373226 1.8946975 16.5
5.3003983 -5.9235702 1.9230713 12.4
-13.902238 -5.70295 1.8588424 22
-13.91984 -5.4821463 1.8505553 21
-13.924626 -5.2912941 1.8424917 20.333334
-13.937958 -5.1087976 1.8360529 21
-13.958166 -4.8990326 1.8295329 21
-13.966208 -4.6899471 1.8219771 21
-13.977537 -4.4810162 1.8151523 21
-13.988685 -4.2999458 1.8096682 21
-14.009528 -4.1490121 1.8066621 21
-13.998865 -4.0414333 1.8016248 21
-14.020912 -3.9464495 1.8009748 21
-11.765389 1.9024782 1.8896754 1
7.4297047 2.9712555 1.9514601 1.5
8.8140564 3.1212032 1.9130201 1
9.2668171 3.1424987 1.9977393 3
8.8216629 3.2960978 1.9257406 1
8.8469334 3.4303002 1.9393518 1
8.837451 3.6824226 1.9554889 1
8.7874479 3.8960788 1.9625033 1
8.8039217 3.9161255 1.9669555 1
8.7830782 4.030786 1.9721709 1
8.6413155 6.5974264 1.8017592 1
8.5979996 6.7079973 1.8067651 1
8.6193886 6.6269584 1.8017592 1
8.6265831 6.9021506 1.829057 20
8.5714502 7.1838684 1.849941 1
8.6137381 7.0918207 1.8460301 20.25
8.5709028 7.5228987 1.8842001 9
8.5880451 7.6975675 1.9043019 19
8.5775604 7.9052382 1.9247949 19
8.5652161 8.0861387 1.9425503 19
8.556489 8.2808237 1.9624957 18.5
8.5449896 8.4986467 1.9849439 18.5
8.5302382 8.6344013 1.9982409 17
8.3458948 12.121258 1.8713341 7
8.3428755 12.296649 1.8887209 9
8.3377399 12.521789 1.9110636 9
8.321373 12.68679 1.9266628 9.5
8.3125038 12.86619 1.9443338 9
8.3025618 13.097598 1.9673672 8
8.2923203 13.329086 1.9905223 8
-10.906576 -7.8593359 2.1390319 5
-10.69521 -7.843092 2.1106653 7
-10.492559 -7.8312693 2.0839672 7
-10.291482 -7.8167553 2.0573733 8.333333
-10.105216 -7.8091021 2.0334387 8
-9.8711367 -7.8149219 2.0051241 7
-9.94347 -7.7899294 2.011538 8
-8.13414 -7.6261125 2.1736655 1
-7.8001342 -7.6146426 2.125963 1
-7.7240028 -7.6434503 2.1196029 1
-7.2385306 -7.6070175 2.0496395 1
-2.8106596 -7.6219244 2.1973393 8
-8.0988445 -7.5921016 2.164125 1
-7.8632522 -7.5702229 2.1285074 1
-7.5193992 -7.564539 2.0809321 1
-7.3179808 -7.5333405 2.0496395 1
-7.069521 -7.5521755 2.0196824 1
-5.2273812 -7.4735222 2.1148498 13
-5.0978785 -7.5042734 2.1044719 19.6
-4.9598279 -7.4867172 2.0839565 19
-3.3128347 -7.411201 2.1912141 22.5
-3.1315119 -7.4061909 2.1719751 23.5
-2.8550165 -7.4946418 2.1688693 15.2
-2.4927249 -7.4386244 2.1248701 7
-5.4344826 -7.3626642 2.1206236 3.5
-5.2915511 -7.3450861 2.0985334 9.3999996
-3.6071033 -7.2175307 2.175081 12
-3.5995667 -7.2677674 2.1864688 12
-3.2024338 -7.3971596 2.1766338 25
-3.0805829 -7.3887978 2.162787 24.5
-2.9480531 -7.3875718 2.150105 22.5
-2.4269204 -7.358336 2.099247 23
-2.2995076 -7.3445673 2.0864167 25.142857
-2.1049049 -7.3311877 2.0697045 27.571428
-1.9001775 -7.3217382 2.0546653 28
-1.6996676 -7.3075957 2.0399773 26.857143
-1.5004332 -7.2968144 2.0276186 26.75
-1.2913119 -7.2852259 2.0160365 26.625
-1.175365 -7.2895069 2.0130601 1
0.17493421 -7.2962675 2.0037427 14
0.21244586 -7.3122406 2.0086603 15
-3.6130333 -7.1010718 2.1474736 11.333333
1.1250625 -7.1767697 2.0042603 1
1.3380857 -7.1297402 2.0037427 21.6
1.5001665 -7.1096215 2.0085495 29.428572
1.6964537 -7.1024551 2.020113 27.75
1.8947608 -7.0934281 2.0326564 25.142857
2.0949867 -7.0833011 2.0464478 26.125
2.2963328 -7.0708055 2.0610528 26.142857
2.4901843 -7.0628014 2.0773952 25.285715
2.6966031 -7.0433812 2.0934234 23.375
2.9106069 -7.0324426 2.1137037 24.142857
3.0931416 -7.0416842 2.1365685 18.6
3.2973235 -7.0848017 2.1710875 14.285714
3.4953022 -7.0564556 2.1887982 11.833333
-3.629003 -6.9142981 2.1041644 11.25
3.5868332 -6.9816523 2.1828454 17
3.6459188 -6.9729943 2.1885395 10.333333
4.6247277 -6.9127765 2.0011742 21
-4.2385139 -6.6064477 2.1093409 20.666666
-4.0521741 -6.607388 2.0843217 21.333334
-3.9299712 -6.6015511 2.0668945 22
-3.6431956 -6.7064075 2.0558949 12.25
7.1900334 -6.7549396 2.0019372 13
7.3044453 -6.7626662 2.0194917 10
7.4809852 -6.7553277 2.0442967 2.75
7.6779013 -6.7339392 2.0706284 1
7.8232894 -6.737967 2.0927622 1
-4.3106222 -6.5955324 2.1168466 19.5
-4.1398258 -6.5975814 2.0938118 19.666666
-3.9181137 -6.5803857 2.0604241 17.75
-3.7272286 -6.55621 2.0304379 15.428572
4.5920005 -6.2096214 2.159034 11
4.6074395 -6.3183312 2.184571 11
4.583178 -6.08845 2.1321168 11.25
4.5851316 -5.9827871 2.1103761 20
4.6925817 -5.964685 2.1249564 16.5
4.8999658 -5.9607654 2.1601558 17.166666
5.0754404 -5.9497499 2.1890574 15
-13.550166 1.2060899 2.1562397 4
-13.213513 1.2210553 2.1033652 9
-13.170828 1.3306665 2.0983591 22.5
-13.182516 1.5131642 2.1033649 22
-13.170735 1.6271087 2.103678 9
-10.400038 1.9701705 2.0500212 1
-10.393099 2.0055013 2.0500212 1
-9.0140171 2.5606627 2.1473927 6
-9.1984339 2.6654911 2.1950822 0
-9.0497103 3.1299756 2.195832 2.6666667
9.4559355 3.1483083 2.0330391 4.5
9.6728621 3.1630557 2.0740631 1
9.9066935 3.1786897 2.1183307 1
10.135291 3.1904464 2.1614537 1
-9.2646275 5.593605 2.103066 1
-9.1778564 5.453867 2.0744448 1
-9.2426538 5.7113008 2.1116524 1
-9.2343025 5.8385696 2.1236734 1
8.6749182 5.8806753 2.1266501 15.6
8.6681805 6.1010337 2.1493943 18.6
8.652874 6.2966061 2.1686089 19.5
8.6351805 6.4472504 2.1828241 10
8.5318632 8.7269878 2.0087221 17
8.5204649 8.8987856 2.0267122 18
8.5084362 9.1047897 2.0487173 18
8.4965067 9.2818613 2.0676978 16
8.4874954 9.5023403 2.092258 16.25
8.4780169 9.724369 2.1172354 14.666667
8.4642143 9.9182901 2.1387193 13.333333
8.4545822 10.115401 2.1612458 13.333333
8.4509239 10.32547 2.1861713 10.666667
8.2797375 13.516054 2.0090466 8
8.2700424 13.714352 2.0290332 8
8.258544 13.905848 2.0482883 8
8.2499237 14.106325 2.0687625 7
8.2382975 14.314659 2.0899677 5
-12.618426 -7.8845229 2.3648193 14.666667
-12.48416 -7.9192562 2.3499057 9
-12.298846 -7.9186444 2.3252935 8.333333
-12.056488 -7.9074268 2.2923379 8
-11.915205 -7.9013982 2.2732527 6
-12.630436 -7.6813545 2.3492801 11
-9.2419424 -7.7533169 2.3492095 7
-9.078517 -7.7435279 2.3240228 9.666667
-8.893218 -7.6863165 2.2896774 8
-8.4730434 -7.6257682 2.2213676 1
-8.3068666 -7.6590137 2.2022867 1
-2.8027496 -7.7333479 2.2250328 1
-12.647729 -7.4870415 2.3355138 10.666667
-8.6554947 -7.5573325 2.2385402 7.5
-8.5175562 -7.5630608 2.2194595 1
-7.0894508 -7.490294 2.3828413 0
-6.9173574 -7.482893 2.3550224 0
-6.7504954 -7.4750581 2.328253 0
-6.4184356 -7.4496102 2.2742651 0
-6.286067 -7.4457979 2.2542892 0
-3.5003154 -7.4239669 2.2139037 26.333334
-12.659924 -7.2921124 2.3213563 10
-3.594785 -7.3590436 2.2082098 12
-13.234933 -7.1214705 2.3871372 2
-13.074066 -7.1204767 2.3647671 2
-12.891143 -7.1055737 2.3383296 2
-12.702918 -7.1142349 2.3130915 6.6666665
3.5474527 -7.0846152 2.2019982 16
4.351285 -6.9335504 2.2784359 13.666667
4.5070581 -6.9276924 2.3006084 16.333334
4.6418571 -6.8910446 2.3132904 15.666667
6.3654165 -6.8862143 2.2535696 8
6.5171676 -6.8502679 2.2721655 6.8333335
4.6348109 -6.7072086 2.2722673 11
6.6998072 -6.7946262 2.2930481 8.5
6.8802128 -6.7777109 2.3203802 9.75
7.0805311 -6.7780957 2.3542352 7.5
7.2811289 -6.7703133 2.3873029 7
4.6207285 -6.497489 2.2249036 11
-13.901921 -5.8937783 2.3965232 26
5.1647282 -5.9470911 2.2045865 17
5.2861733 -5.9327335 2.2239115 13
-13.905879 -5.6988459 2.3850255 25.5
-13.922267 -5.5052571 2.3757696 24
-13.931073 -5.3158102 2.3660185 26.25
-13.935803 -5.1038809 2.3547552 24
-13.952009 -4.892745 2.3456819 24
-13.965768 -4.684473 2.3368433 24.5
-13.974647 -4.5012908 2.3289435 24.333334
-13.988058 -4.320816 2.322217 23.5
-14.00515 -4.0911064 2.3141346 23
-13.992302 -4.1908631 2.3167417 23
-14.017183 -3.9142845 2.3081379 24.5
-14.027576 -3.7104814 2.3010983 25
-14.044069 -3.5094333 2.2955446 24.5
-14.052408 -3.3092804 2.2892091 23
-14.066303 -3.1102281 2.2842031 23
-14.074555 -2.9102502 2.278728 24.5
-14.090578 -2.7127595 2.2749736 25
-14.101358 -2.514905 2.2708282 24.5
-14.11175 -2.3176658 2.2670736 24.5
-14.117867 -2.1204224 2.2630847 24
-14.131201 -1.9002396 2.2601748 23.799999
-14.144936 -1.6793797 2.257844 24.5
-14.158556 -1.4858986 2.2565143 24
-14.170083 -1.2911763 2.2552629 23.5
-14.17848 -1.0951447 2.2539332 23.5
-14.189049 -0.89946693 2.2533855 23
-14.204623 -0.63711363 2.2535422 25
-14.192634 -0.73234159 2.2523949 23
-14.207209 -0.51179826 2.2531509 23.5
-14.222902 -0.31621641 2.2547154 24.5
-14.235265 -0.099094361 2.2561703 25
-14.257067 0.12113554 2.2596431 25
-14.26734 0.31726223 2.261755 25
-14.278435 0.51014012 2.2644143 25
-14.295039 0.70808399 2.2684035 25
-14.303499 0.90503699 2.2715321 25
-14.318687 1.1113814 2.2762773 23
-14.302093 1.225052 2.27513 23
7.4342718 2.969908 2.2586794 1
8.7732964 3.0448689 2.2490704 4
8.8726788 3.1230972 2.2766268 1
9.3343124 3.1423259 2.3790922 7
8.7998095 3.3728666 2.2801139 3
8.8122959 3.2714794 2.2748048 3
10.348744 3.2173634 2.2026684 1
10.548003 3.2365103 2.2408302 1
10.743761 3.25319 2.2782288 1
8.809041 3.5216274 2.2943609 2
8.7940617 3.7165704 2.3077826 3
8.8064814 3.6905401 2.3081577 3
8.7833939 3.8970308 2.3216546 3.3333333
8.8012018 4.0350547 2.338151 3
8.5980568 6.7542615 2.2125905 1
8.618391 6.8920193 2.2320528 18.5
8.5918884 7.1722765 2.2618191 8
8.615756 7.0650444 2.2524059 19
8.5833378 7.5573831 2.3083766 10
8.5753412 7.6831684 2.3231642 18.75
8.565587 7.8903546 2.348351 19.5
8.5539541 8.1014214 2.3742056 17.5
8.5453863 8.266674 2.3948131 17
8.4373283 10.493655 2.205204 10
8.4339905 10.676717 2.2272613 10
8.4207544 10.888783 2.2520821 10
8.4144411 11.113651 2.2794058 10
-10.701 -7.8426852 2.5809791 7
-10.501343 -7.8351703 2.5491776 7
-10.301547 -7.821785 2.5168674 7
-10.11072 -7.8092928 2.4862103 7
-9.9276781 -7.8023038 2.4575891 9
-9.9231548 -7.7984099 2.4564443 8
-8.2823343 -7.5770245 2.5900965 0
-8.1002293 -7.5615349 2.5572534 0
-7.9015336 -7.5501485 2.5226109 0
-7.6984186 -7.5325284 2.4866188 0
-6.194674 -7.4337239 2.5912619 1
-5.2297649 -7.4714332 2.447186 15.333333
-5.1088138 -7.5160341 2.4394903 17.799999
-4.9802561 -7.5135422 2.4204414 19
-5.450007 -7.3793087 2.4600406 2.5
-5.3042173 -7.3581858 2.4331753 9
-13.809864 -7.13273 2.4681702 2
-13.669529 -7.1485434 2.4497108 2
-13.48418 -7.1388335 2.4231172 2
-13.355114 -7.1281743 2.404345 2
6.3397613 -6.8404636 2.594713 6.3333335
-13.837631 -6.6704021 2.4388649 19.666666
7.3880715 -6.7490749 2.402487 7
7.5195255 -6.7465463 2.4249823 6.25
7.7025971 -6.7353721 2.4554255 6
7.8387475 -6.731637 2.4789705 8.5
-13.857455 -6.5043874 2.4302089 24
-13.86162 -6.3035579 2.4172509 24.75
-13.878963 -6.1107273 2.4070566 24
-13.884018 -5.9991007 2.4005904 24
-13.200356 1.2220895 2.56864 11
-13.158248 1.3089547 2.5621526 20.666666
-13.172029 1.403627 2.5667319 20
-10.381884 1.9702996 2.4222829 0
-10.382589 2.0070853 2.4240823 2
-9.017107 2.5648751 2.4861813 6.5
-9.0572948 3.1188819 2.5422158 4
9.5324421 3.1504796 2.4231827 6
9.6709909 3.1586385 2.4542258 4
9.911602 3.1762729 2.5084391 3.5
10.139559 3.1877785 2.5595028 3
10.284374 3.1938457 2.5918958 2
-9.0554543 3.2569928 2.5543802 4.5
-9.1793861 5.5019894 2.4615369 0
-9.2587881 5.76998 2.5100136 0
-9.1781464 5.6967301 2.4852691 0
-9.2125244 5.8957753 2.5169122 0.33333334
-9.1981897 5.9760919 2.5244105 0
8.675972 5.8768454 2.5171223 16
-9.2229853 6.1143079 2.5470555 0
-9.1997643 6.0678244 2.5365579 0
8.6634531 6.0931945 2.5424967 18.799999
8.655158 6.2935476 2.5672636 17.5
8.5535736 6.5004101 2.5761495 0
8.6404266 6.4226418 2.5817733 14
8.5299129 6.6010084 2.5855973 0
8.5448055 8.3517809 2.4060707 16
8.5348091 8.4836454 2.4223847 18
8.5193872 8.7101755 2.4510062 15.5
8.5167742 8.9224157 2.4798501 15.333333
8.4976044 9.0882883 2.5003304 15
8.4907207 9.3050232 2.5299058 15
8.4777718 9.5205126 2.5588453 14.333333
8.4750299 9.7176447 2.5868304 14.333333
3.2804899 20.244371 2.5687516 9.333333
3.4974368 20.233343 2.5721643 13
3.7154875 20.225191 2.5762265 11
-12.020411 -7.9071078 2.7972293 4
-11.896206 -7.9136724 2.7779574 3
-10.907335 -7.8555722 2.614625 3
-9.2424841 -7.7483053 2.7810798 10
-9.0760984 -7.7360096 2.7502613 11
-8.9050179 -7.6941371 2.7142692 10
-8.6497765 -7.5482216 2.6479087 9.5
-8.493494 -7.562727 2.6235015 2.75
-8.3844433 -7.5936723 2.6098919 0
-6.8943481 -7.4784827 2.7210853 1
-6.7005963 -7.4890385 2.6890955 1
-6.5134873 -7.4790606 2.6546726 1
-6.3226194 -7.459692 2.6181791 1
-7.8448339 -6.9143133 2.7921057 1
-7.7250557 -6.9226394 2.7700195 1
-7.5080118 -6.8873539 2.721189 1
-7.2952728 -6.9226151 2.6868522 1
6.4763379 -6.8130517 2.6150732 8
6.6817107 -6.8055649 2.6526883 11
6.5768576 -6.7973599 2.6311202 11
6.760077 -6.7868738 2.6642489 10
6.8859296 -6.7872257 2.6887076 7.5
7.0786552 -6.7804999 2.7252007 5.75
7.2935166 -6.7622976 2.7645671 6
7.4531288 -6.7633758 2.7967644 5
-14.039821 -3.2780859 2.7954483 22
-14.052102 -3.1045551 2.7901692 22
-14.067344 -2.9056001 2.7848265 22
-14.077554 -2.7076671 2.7791021 22
-14.090837 -2.5104542 2.774523 22
-14.101303 -2.3134394 2.7699435 22
-14.117698 -2.1179671 2.7670815 22
-14.127449 -1.9219049 2.7634559 22
-14.142591 -1.7009722 2.7608228 22
-14.152744 -1.482192 2.7579224 22
-14.158346 -1.2876041 2.7552512 22
-14.168259 -1.0912927 2.7539155 22
-14.179733 -0.89647686 2.7534385 22
-14.190289 -0.70462143 2.7533431 22
-14.202589 -0.45929402 2.7537248 22
-14.193106 -0.55748796 2.7525797 22
-14.213419 -0.31354967 2.7550604 22.5
-14.222325 -0.11958451 2.7562056 23
-14.24028 0.098792039 2.7596781 24
-14.255493 0.32000393 2.7632651 22
-14.273808 0.51301044 2.76794 22
-14.28577 0.71131688 2.7719469 22.5
-14.291698 0.90675455 2.7752862 22
-14.314369 1.1052545 2.7824416 14.5
-14.286209 1.2261288 2.7789116 12
-13.525192 1.2061524 2.6312253 1
8.7924538 3.0495541 2.6083438 3
8.8449602 3.1370239 2.6292222 1
9.1715183 3.1403811 2.7123892 1
9.2998838 3.1459789 2.7455182 9
9.43575 3.1531062 2.7807176 8
8.8275766 3.291424 2.6386259 1
10.454174 3.2043688 2.6301377 1
10.65595 3.2231171 2.6760275 0
10.927006 3.2403269 2.7372141 0.5
8.8539906 3.5355098 2.6682174 1
8.7935677 3.7486863 2.6743429 2
8.8100443 3.6648395 2.6699429 1.3333334
8.7927904 3.9539032 2.6956522 3
8.8111763 3.8491609 2.6890955 2.3333333
8.7892647 4.0259609 2.7025542 2
8.5690212 6.6786795 2.6035933 0
8.6212521 6.8893299 2.6427348 14.75
8.5545778 7.1880541 2.6735532 0
8.6140671 7.0838008 2.6691666 15.25
8.4891872 7.2630143 2.6728783 0
8.5677757 7.5111146 2.7236047 4.5
8.5749865 7.7037959 2.7538607 12
8.561842 7.8815141 2.778718 13
8.5588713 8.0153351 2.7988508 12
1.7538054 9.9529915 2.7667413 1
1.8957382 9.9435911 2.7721765 4.1666665
2.0941811 9.9341974 2.7815459 5
2.2422669 9.9397898 2.7924507 4.6666665
8.4613905 9.910347 2.613035 13
5.5275373 10.12905 2.7400262 0.75
5.6784387 10.107738 2.7532609 1
8.458931 10.115714 2.642801 11
8.4422674 10.311559 2.6696415 11
8.4352236 10.48741 2.6949556 11
8.4273062 10.663418 2.7203968 11.666667
8.4170752 10.880269 2.7519438 10.666667
8.4058285 11.096049 2.7834911 11.333333
3.1009648 13.461773 2.7427535 2
3.2225878 13.464771 2.7491453 2
8.2808256 13.988542 2.6421254 2
8.2604427 14.11535 2.6576123 7.5
8.2399826 14.30615 2.68186 10
8.2300053 14.516222 2.7097054 10
8.2205353 14.731928 2.7384889 8.5
8.2030115 14.88089 2.7575738 7
8.2038555 15.065395 2.7830729 6
3.1937318 20.593073 2.6091313 2
3.1541162 20.800926 2.6335053 2
1.9652041 22.087963 2.7709739 3
2.1172552 22.051954 2.7685363 3
2.2815843 22.125521 2.7797482 3
2.9742246 29.099316 2.6066816 6
3.1279469 29.093731 2.6077275 6
3.2833617 29.101271 2.6099937 6
3.3990967 29.201349 2.6199293 6
3.5597315 29.682997 2.663507 6
3.7221594 29.71479 2.6681266 6
3.8833237 29.733953 2.6716998 6
-12.605807 -7.8734622 2.8888175 13.333333
-12.470934 -7.9378104 2.8735528 9
-12.286505 -7.9077344 2.8403521 8
-12.145269 -7.9040775 2.8170733 6
-10.32776 -7.8085423 2.9837608 10
-12.61596 -7.699213 2.8724079 12.666667
-10.20548 -7.7973456 2.9599156 10
-10.101019 -7.7959852 2.9407949 9.5
-9.9091072 -7.7815318 2.9041278 10
-12.632358 -7.5020542 2.8550444 12
-12.634415 -7.3032265 2.8355181 11.333333
-13.615938 -7.1469827 2.9868934 2
-13.506272 -7.1477809 2.968194 2
-13.316259 -7.1334829 2.9344208 2
-13.09113 -7.1270294 2.8954959 2
-12.903917 -7.1098576 2.8621042 2
-12.69494 -7.13556 2.8292851 8
-8.3035421 -6.9566574 2.8914919 1
-8.1148214 -6.9356418 2.849736 1
-7.9546604 -6.916873 2.814364 1
-13.831322 -6.6643472 2.9812963 18
7.5422873 -6.7471137 2.8119481 5.3333335
7.7146325 -6.7495542 2.8474929 11.666667
7.8380327 -6.7346354 2.8702688 12
-13.836021 -6.4912362 2.9674308 20.666666
-13.847454 -6.2941251 2.9531202 21
-13.865804 -6.1019287 2.9408448 20
-13.872945 -5.9066458 2.9267886 22
-13.892281 -5.6897221 2.9137182 22
-13.913878 -5.4963164 2.9033191 22
-13.91773 -5.3078375 2.8905349 22
-13.926403 -5.0963225 2.8774643 22
-13.939087 -4.8827844 2.8655386 22
-13.955087 -4.7047935 2.8570158 22
-13.965508 -4.5221243 2.8476028 22
-13.973943 -4.3137274 2.8367267 22
-13.98958 -4.1090851 2.8279495 22
-14.009297 -3.8835452 2.8193629 22
-13.998888 -3.9842348 2.8227975 22
-14.020607 -3.7059791 2.8123031 22
-14.030106 -3.5032847 2.8040981 22.5
-14.045011 -3.3793731 2.8010452 22
-10.401684 1.9778293 2.8097053 1
-10.377666 2.0097737 2.8050466 4
9.5657148 3.1592705 2.814364 6
9.6963749 3.162869 2.8480105 5
9.9175577 3.1742516 2.9054685 4.5
10.168085 3.1945164 2.9712083 3
11.211616 3.2587783 2.8015504 1
11.504411 3.2974641 2.8690357 1
8.682373 5.8994145 2.9189267 19.5
8.6769686 6.0983005 2.947397 23.200001
8.6658669 6.2976046 2.9753492 20.75
8.6564445 6.4539089 2.9976079 13.333333
7.4452586 7.1245708 2.859916 1
7.4453773 7.2521386 2.8832099 1
-10.029311 7.4069438 2.8726349 1
-9.9910135 7.4314761 2.8690357 1
6.8143554 7.7553377 2.8604338 1
8.5489721 8.1195059 2.8133976 12.333333
8.5431986 8.3169451 2.8435035 12
8.5359354 8.5073814 2.8726349 12
8.5214119 8.7061701 2.9023285 12
8.5055122 8.9047289 2.9321718 12
8.4981365 9.1156769 2.9658771 11.75
7.3233881 9.3360748 2.8240454 1
8.4916182 9.2667971 2.9900594 12
7.302484 9.4781466 2.8465405 1
2.3569562 9.9606628 2.8055642 2
2.4891801 9.9678564 2.8166933 1
2.621515 9.9755573 2.8283403 1
6.9501796 9.9186478 2.8780336 1
7.3988051 9.8712044 2.931572 2
2.6005118 10.033893 2.8417988 1
8.4008894 11.249111 2.8063881 10
3.5676978 14.583963 2.9765897 2
3.6781235 14.57883 2.981169 2
1.9252105 14.719883 2.9380462 2
3.7930675 14.608324 2.9926176 2
3.9021211 14.614272 2.9994867 2
8.1915731 15.286051 2.8126392 5
8.177248 15.514788 2.8433001 5
2.998888 17.192905 2.8170192 2
3.1118333 17.1394 2.8121176 2
3.2916143 17.12509 2.8155591 2
3.4832935 17.144039 2.8248408 2
3.6499333 17.183716 2.8367298 2
2.9715016 17.37899 2.8451774 2
3.7604084 17.257551 2.8520603 2
2.9535344 17.623381 2.8827217 2
2.9030063 18.057932 2.9490499 2
-10.89414 -7.8401413 3.092412 6
-10.726667 -7.8269606 3.0595691 10
-10.527228 -7.8209147 3.0220025 10.333333
-13.913899 -7.184515 3.0414646 2
-13.78124 -7.1749778 3.0178044 2
8.7559881 -6.7588086 3.0674889 1
9.0824242 -6.6821404 3.1259823 1
-13.558779 1.2138854 3.1245799 5
-13.209138 1.2274752 3.0444975 11
-13.152379 1.3128611 3.0333998 24.666666
-13.143998 1.4051218 3.0336998 5
-13.267479 2.368454 3.0939867 1
10.332664 3.2044141 3.0141721 1
10.528913 3.2225831 3.0659361 1
10.686496 3.2279627 3.1068296 1
10.882636 3.2455528 3.1585934 1
8.577879 6.5840216 3.0012314 1
8.6281776 6.5517316 3.0069253 6.5
8.5868835 6.7359872 3.0276308 4
8.6135139 6.6831121 3.0247838 3.5
8.6299601 6.892354 3.0623126 13.75
8.6294479 7.0916524 3.0951827 17.75
8.5734806 7.3017864 3.118994 4
8.6077633 7.2005067 3.1089001 16
8.5685873 7.4810243 3.1487582 1
8.5964737 7.6654234 3.1865458 1
8.6059866 7.7252293 3.1989691 1
7.8561788 7.9033618 3.0833633 1
8.4928894 9.3659229 3.0069304 12
8.4788237 9.514967 3.0299504 11
6.4177837 9.6687641 3.1958632 1
8.4750319 9.710803 3.0627935 11.666667
8.4590902 9.9008055 3.093087 11
8.4513931 10.099821 3.1265297 6.6666665
8.445981 10.308694 3.1623719 4
8.4413462 10.450092 3.1866665 1
6.7681255 13.529002 3.0097904 8
6.8545508 13.579077 3.0262001 2
7.185914 13.972321 3.1238945 2
3.7591724 14.674738 3.0033028 2
3.9071298 14.627043 3.0021582 2
4.0206237 14.641272 3.0109353 2
-12.413779 -7.9248786 3.3918219 8
-12.268076 -7.9195156 3.363028 8
-12.06427 -7.9021878 3.3216372 5
-11.910477 -7.8863301 3.290144 5
-12.611946 -7.6608057 3.3976705 11
-10.072321 -7.795588 3.3998127 14
-9.9229918 -7.7872257 3.3672016 15
-9.7531395 -7.7878132 3.3320022 10
-12.624155 -7.4926896 3.379787 11.25
-12.636737 -7.2988014 3.3592789 11
-12.892838 -7.0978298 3.3873229 5
-12.679962 -7.1211758 3.3472815 8.75
-13.939857 -4.8803525 3.3949714 21.5
-13.946507 -4.6964946 3.3823738 21
-13.963474 -4.5161724 3.3728135 22.5
-13.978722 -4.3099966 3.3615661 23.25
-13.989494 -4.1038427 3.3499811 22.75
-14.008724 -3.852314 3.3380585 21.5
-13.997412 -3.9526825 3.3418827 22
-14.011998 -3.6985333 3.3293982 21.75
-14.02641 -3.4972668 3.3208499 23.5
-14.040929 -3.2982829 3.3130891 22.75
-14.058748 -3.1009674 3.3067904 22.75
-14.063172 -2.8996615 3.297905 22.25
-14.080192 -2.7032061 3.2927308 21.25
-14.090704 -2.5054946 3.2866573 21
