# .PCD v0.7 - Point Cloud Data file format
VERSION 0.7
FIELDS x y z intensity
SIZE 4 4 4 4
TYPE F F F F
COUNT 1 1 1 1
WIDTH 1360
HEIGHT 1
VIEWPOINT 0 0 0 1 0 0 0
POINTS 1360
DATA ascii
-1.3572216 7.1826935 0.94280821 39.333332
-0.014863074 7.1942739 0.92379659 46
0.18612002 7.1939168 0.92330909 46
0.2363555 7.1979132 0.92379659 46
3.6439979 7.0118461 0.9983806 18
6.0567217 7.1881943 0.8503741 1
6.2957168 7.1934905 0.86408663 1
6.7832379 7.1931429 0.89220887 1
7.0132971 7.1915159 0.90580511 1
-0.064898036 7.2189593 0.92704636 31
0.085559197 7.2102189 0.92546791 48
0.30724472 7.2130265 0.92574644 48.57143
0.49852484 7.2189507 0.92708707 47.75
0.70076865 7.2178683 0.92827529 49.375
0.9028151 7.2241111 0.9310478 49.5
1.1068007 7.2300148 0.93449056 51.125
1.3001606 7.2371054 0.93856019 52
1.4938848 7.2366915 0.94235122 45.75
1.7030983 7.2416859 0.94777435 46.625
1.9001139 7.240191 0.9527666 48.857143
2.1029634 7.2507296 0.95999181 49.75
2.3074756 7.2539206 0.96700799 39.714287
2.4691815 7.2859254 0.97644413 40.25
2.9584332 7.2705674 0.99415582 33.333332
3.0309496 7.2712007 0.99740565 38
6.1523871 7.2025805 0.85664928 1
6.3055191 7.2044554 0.86536491 1
6.5051169 7.21029 0.87713093 1
6.6843438 7.21 0.88750243 1
6.9171157 7.2146492 0.90153456 1
7.1369152 7.22049 0.91510177 1
7.2864704 7.2235522 0.92439836 1
7.4937997 7.2324767 0.93773901 1
7.7051163 7.2355552 0.9511261 1
7.8937774 7.2383685 0.9632408 1
8.1046534 7.2324538 0.97640133 1
8.3136883 7.2460599 0.99075294 1
8.4098825 7.229847 0.99609846 1
2.5855901 7.4325199 0.99789315 30
12.668664 7.4386153 0.80023223 25
-9.1186256 -8.2489882 1.1297953 16
-9.125926 -8.1165762 1.1226486 16.75
-9.1264524 -7.8901086 1.1097932 16.5
-9.1272936 -7.6976452 1.0990584 16.666666
-9.1332912 -7.5701456 1.0924056 16
-8.9330912 -7.2768264 1.0626855 6
-8.9287443 -7.0928087 1.0524447 6
-8.9329128 -6.8954935 1.0422474 6.25
-8.9227467 -6.692872 1.0309608 6
-8.8916187 -6.477282 1.0177131 6.5
-8.8912754 -6.2885923 1.008213 6.75
-8.901144 -6.1559038 1.0023737 7
-9.1448746 -5.8790412 1.007022 16
-9.1533146 -5.7724876 1.0027223 24.5
8.6501503 -3.1392536 1.1451112 7
-7.8460808 -2.6269834 1.0810081 1
-7.791677 -2.6526122 1.0756457 1
-4.4852319 -2.637687 1.0876685 35.333332
-4.488255 -2.5025725 1.075635 59.299999
8.6894302 -2.5455182 1.1264652 5
-4.4905462 -2.2985086 1.0580041 63.200001
12.86282 -2.2529304 1.1639605 4
-5.0513906 -2.0712857 1.1400139 10.5
-4.9045658 -2.0749314 1.1137776 19
-4.6982512 -2.0716865 1.0764744 21
-4.5099211 -2.1181734 1.0465387 53.777779
13.343826 -1.2849582 1.1941162 2.3333333
13.350603 -1.1700034 1.1937675 1
8.9483738 -0.6735965 1.1155214 23.799999
8.9141846 -0.50343722 1.1099316 18.666666
8.9222765 -0.30579171 1.1098039 21.571428
8.9151583 -0.10830691 1.1083474 26.833334
8.9045086 0.088789821 1.1070185 26.285715
8.8847113 0.30061692 1.1051729 30
8.8916349 0.49802613 1.1071287 30.666666
8.8876057 0.69543999 1.1083066 28.285715
8.8812246 0.909114 1.1099433 24.142857
8.8705664 1.1062747 1.1114347 21.333334
8.8646622 1.2911705 1.1138314 15.833333
8.8463125 1.4893515 1.1154796 15.142858
8.852253 1.6773498 1.1203474 18.200001
-0.71287382 5.0413213 1.0364428 18
-0.56680524 5.3885946 1.0984175 6
-5.279458 6.1492767 1.0525392 27.6
-5.1013374 6.1614404 1.0392312 27
-4.8980718 6.1602216 1.0229982 26.833334
-4.6899071 6.1652579 1.0073583 28.833334
-4.5856628 6.2997861 1.0125175 13
3.7691884 6.3412714 1.1913577 2
-4.6047168 6.5804877 1.0415223 13
-4.5912633 6.468678 1.029498 8.333333
3.6913841 6.4348068 1.1983973 51
-4.604877 6.7035418 1.0537702 19.75
-4.6078658 6.9172673 1.0754019 18.333334
-4.597991 6.8685617 1.0697961 16
-9.6811981 7.0275912 1.1019055 1
-9.498641 7.1028233 1.0928122 6.1666665
-9.0254412 7.0316825 1.0558872 12
-8.9739561 7.043293 1.052924 1
-4.6212378 7.0817709 1.0929512 28.5
-4.500246 7.1159463 1.0881577 31.333334
-4.3053265 7.1111121 1.0746219 30.4
-4.1045032 7.1166925 1.0622052 31.428572
-3.8870203 7.1169782 1.0486313 32.333332
-3.6965072 7.128489 1.0383943 34.5
-3.5540888 7.1275468 1.0299853 31.333334
-3.0488875 7.1651368 1.006749 36.333332
-2.9810913 7.1449533 1.0010617 40
-0.84151745 7.1895089 1.1909406 39.333332
-0.72876346 7.1903768 1.1886201 55
3.6374445 7.0955644 1.007277 19
5.9927797 7.1809716 1.1716788 1
6.0970688 7.1812344 1.1797831 1
6.2664719 7.1878262 1.1936965 1
-9.4026508 7.213263 1.0917954 10
-9.347208 7.2239728 1.0884836 12
-3.4722507 7.2146173 1.0348438 24.799999
-3.3008068 7.2167206 1.0256793 24.666666
-3.1623116 7.2162514 1.0182859 24.333334
-0.89480746 7.2021594 1.1941736 10
-0.79348278 7.2030826 1.1919835 52
-0.54273391 7.2337298 1.1919836 28
-0.064149193 7.2477293 1.1887923 52.799999
0.10045586 7.2117009 1.1824018 59.5
0.30035973 7.2175522 1.1832622 61.5
0.50109303 7.2284355 1.1858042 61.5
0.7037279 7.2287064 1.1875641 60.75
0.90594739 7.2364998 1.1913968 58
1.097133 7.2362394 1.1946205 54.57143
1.2641255 7.2370687 1.1982409 48.666668
2.908221 7.3675666 1.0031742 35.333332
3.1367903 7.2767439 1.0028166 39.200001
3.3004787 7.2792206 1.0107707 39
3.4970791 7.278656 1.0203868 39.285713
3.6378679 7.2533355 1.0247855 32.333332
6.3100381 7.2048535 1.1987338 1
8.5264521 7.2317786 1.0038843 6
8.6840925 7.2135606 1.0132972 15
8.9609518 7.3439312 1.0391535 16
9.1035118 7.3845673 1.0510066 18.5
9.3022442 7.3913522 1.0648208 16
9.4680471 7.3945489 1.0762817 16
9.7419195 7.39783 1.0952817 16
2.7940381 7.5413389 1.018611 11
2.8390605 7.4589486 1.0108721 32.25
9.54531 7.4030685 1.082034 16
9.6537037 7.4088078 1.0897908 16
9.8920021 7.4064775 1.1061472 16
10.11254 7.4122467 1.1218351 17
10.303905 7.4191074 1.1356349 17
10.488087 7.4172044 1.1485629 17.333334
10.686396 7.4237089 1.1630018 18
10.885282 7.4241557 1.1772661 18
11.093237 7.4302979 1.1925476 20
-9.1666403 -5.8441005 1.397137 20
-9.1565809 -5.7026758 1.3869975 17.200001
-9.1614876 -5.5073509 1.3752006 19.25
-9.2244244 -5.3688459 1.3733726 9.5
-9.1566973 -5.3933177 1.3676447 16
-9.2532263 -3.4125054 1.2757552 1
-9.2399931 -3.3332412 1.2709616 1.3333334
-9.1929913 -3.0296366 1.253575 1
-9.2173357 -2.9126039 1.2521125 1
-9.1959429 -2.9943705 1.2526001 1
-7.8218641 -2.6594939 1.3808 2
-4.4976921 -2.642906 1.2874285 21
-4.4934664 -2.5035136 1.2712021 31.299999
10.040109 -2.4169149 1.2823361 1
-4.4983492 -2.3004341 1.2509115 32.599998
10.028779 -2.3796427 1.2798988 2
-5.0558028 -2.0815403 1.3483154 13
-4.9130363 -2.0763037 1.3172719 14.5
-4.7053061 -2.0726161 1.2726192 15
-4.5154533 -2.1186428 1.2366896 34.888889
10.397015 2.0882158 1.3162158 1
13.910243 3.0889006 1.2682858 25
13.901222 3.2858112 1.2714235 28.5
13.897444 3.4876816 1.2753453 31
13.895506 3.6913488 1.2797033 33
13.895056 3.8943236 1.2844096 33
13.892305 4.1008329 1.2892468 29.5
13.888247 4.3072968 1.2942147 32.5
13.882767 4.5156555 1.2993568 32.5
13.86822 4.6976724 1.3032353 29
13.871337 4.8857083 1.308944 31.25
-0.81313002 5.1899662 1.2614841 2.5
-0.3248677 5.0267482 1.3946589 1
13.862688 5.0993528 1.3146527 33.25
-0.88912988 5.2419376 1.2767808 0
-0.27017459 5.2801118 1.2641835 1.625
-0.13284801 5.2933283 1.264746 3.75
13.855347 5.3114128 1.3206664 28.5
13.85176 5.4982252 1.3263938 27.714285
13.84944 5.7077017 1.3331733 29.5
13.8425 5.9000192 1.3392016 28.5
-5.2943387 6.1474795 1.3474795 27.166666
-5.0927711 6.1553617 1.3273307 31.200001
-4.8954849 6.1606541 1.3077971 32.666668
-4.6846471 6.1630807 1.2870435 37.833332
-4.582015 6.1865005 1.2798997 28
13.838886 6.0986581 1.3459198 29.5
-4.6045146 6.3980331 1.3086836 22
-4.5841775 6.2795238 1.2917887 22.666666
13.834572 6.2881579 1.3524346 29
-4.6034479 6.4432921 1.3143153 22
-4.5961075 6.5257916 1.3241185 22
3.6981273 6.4872246 1.2062503 32.400002
3.8993165 6.4394736 1.2150576 29
12.730488 6.5846481 1.2772629 20.5
12.89739 6.5879741 1.2903363 13
13.083307 6.5991316 1.3052399 17
13.300755 6.5956669 1.3220608 17.5
13.832209 6.5097852 1.3604965 30.75
-4.6077743 6.7119031 1.3490437 22
3.6530418 6.6966262 1.2322655 24
12.685918 6.7009315 1.2785993 29.666666
13.486717 6.6025815 1.3368775 11
13.690145 6.6158667 1.3533499 17.5
-4.6113682 6.9181137 1.3760287 21.5
3.6525381 6.8989067 1.2608147 24
12.68382 6.8975129 1.2866757 26.5
-8.2533894 7.0505199 1.3929935 14.5
-8.1054306 7.0486565 1.3789378 13
-7.9118214 7.0568304 1.3615513 8
-7.6922669 7.0591321 1.3415036 6.5
-7.5091262 7.0661907 1.3253967 13.666667
-7.3218136 7.0655932 1.308477 14.5
-6.7096424 7.0793495 1.2559311 17
-6.5103846 7.1193137 1.2425371 18.857143
-6.353261 7.1730022 1.2341979 13
-4.6208425 7.0599265 1.3953483 24
-4.4802098 7.1176863 1.3905301 34.200001
-4.2909112 7.1186185 1.3743862 37.666668
-4.1003065 7.114543 1.3579292 35
-3.9039822 7.1232095 1.3432781 39.285713
-3.6932328 7.1273293 1.3274559 40.333332
-3.5571632 7.1393795 1.318904 34.666668
-3.0394316 7.1488042 1.2840713 45.333332
-2.8918669 7.1526999 1.275162 46
-2.6882434 7.1561956 1.2631836 44.285713
-2.4911134 7.1649084 1.2530823 50.285713
-2.2937522 7.1634603 1.2421767 49.714287
-2.1006978 7.169188 1.2332822 49.142857
-1.8982128 7.1750488 1.2247175 53.5
-1.6968104 7.1790099 1.2167002 58.857143
-1.4988173 7.1787739 1.2089958 55
-1.3196192 7.1806712 1.2030381 32.666668
3.6426177 7.0995522 1.28866 22.5
6.3809094 7.1888142 1.2028774 1
6.505106 7.1966939 1.2136017 1
6.6731691 7.1922827 1.2268856 1
6.8998814 7.1908331 1.2455316 1
7.1204476 7.1984167 1.264787 1
12.67257 7.0913615 1.2941129 26
-3.4703712 7.2171869 1.3235136 26
-3.2958612 7.2124138 1.3105086 29.5
-3.1583226 7.2143226 1.3013834 30.333334
-1.2695978 7.2775335 1.2163873 2
-0.45198482 7.3564615 1.2099421 50.400002
-0.14541796 7.3692236 1.2085656 54
1.366498 7.237608 1.2007438 50
1.4972689 7.2419424 1.2048894 53.5
1.7070478 7.2498121 1.2123591 60.75
1.9051505 7.2512088 1.2192926 57.714287
2.0931766 7.2552385 1.2270249 50.57143
2.296546 7.2539387 1.2353158 50
2.4719386 7.2858033 1.2480652 47
2.9387615 7.3258038 1.2779182 44.666668
3.1072292 7.2700982 1.279274 47.42857
3.3021643 7.2761703 1.291893 42
3.5022087 7.2833133 1.3056443 44.42857
3.6322477 7.2653818 1.311656 45.5
6.4804549 7.2025051 1.2121394 1
6.7204113 7.203671 1.2318009 1
6.9105768 7.2027364 1.2474816 1
7.1019006 7.2123723 1.264462 1
7.3057203 7.2134724 1.2819706 1
7.4893188 7.2235913 1.2987479 1
7.6962647 7.2216973 1.3167521 1
7.9084296 7.2219691 1.3356336 1
8.0969429 7.2210436 1.3525329 1
8.3334827 7.2331209 1.3750787 1
8.516696 7.2198243 1.3908811 4.6666665
12.673624 7.2920179 1.3029737 26.5
-0.22653705 7.4538584 1.2226447 2
-0.18651588 7.4135776 1.2159181 38
2.5951977 7.4536538 1.279274 26
2.7974682 7.5427809 1.3027391 9
2.8401678 7.4547019 1.2917887 39.5
11.294595 7.4253559 1.2068992 18
11.509419 7.4302502 1.2227905 19
11.677212 7.4265385 1.2349052 17
11.906413 7.4308333 1.2519877 19
12.132444 7.4308715 1.2687216 17
12.32901 7.4350266 1.2835381 19
12.53731 7.4434681 1.2994876 19
12.666969 7.4346466 1.3088132 35
-4.3796859 -11.646403 1.5772599 1
-4.3968506 -11.510314 1.5625138 6
-4.4005046 -11.231427 1.5309496 6
-4.394938 -11.330212 1.5419178 6
-4.9057283 -11.071981 1.5378352 14
-4.6965661 -11.072856 1.5273423 15
-4.4738722 -11.08713 1.5180801 13.8
-9.0126305 -8.6804867 1.5955404 9
-8.9964533 -8.6048622 1.5877408 8
-9.1022434 -8.4915171 1.5878626 13
-8.9972897 -8.5486126 1.5831097 8
-9.1277876 -8.2827234 1.5730555 14.5
-9.1298857 -8.0863237 1.5573546 13
-9.1348152 -7.8923268 1.5423445 14
-9.1372538 -7.7022018 1.5276185 13.666667
-9.1371078 -7.5140953 1.5130348 14.25
-9.1394129 -7.3033729 1.4971918 14.5
-9.1249619 -7.1616273 1.4851267 2
-9.1124439 -6.901649 1.4647138 2.25
-9.1529026 -6.7087789 1.4547813 15.5
-9.1486845 -6.5099006 1.4402789 12
-9.1183939 -6.2741461 1.4208772 1
-9.1364079 -6.0763493 1.409324 9
-9.161891 -5.9324698 1.4024181 16
8.6694727 -3.1498184 1.4689769 9.333333
-4.5069804 -2.6355448 1.4889984 38.5
-4.5044918 -2.4967101 1.4706942 49.777779
8.6848898 -2.5474255 1.4408708 6.25
-4.507648 -2.2931116 1.4467992 53.909092
11.425621 -2.386981 1.4473473 1
-5.0467529 -2.0864196 1.5566796 16
-4.8923235 -2.0871367 1.5183744 20.5
-4.7068763 -2.0820181 1.4719596 21.666666
-4.5336733 -2.1151826 1.4329642 45.625
-0.26980537 5.1540589 1.4271666 13
-0.16743723 5.1501045 1.4237761 11.25
-0.8760426 5.2787876 1.484383 1
-0.26984796 5.298173 1.4655755 3.5
-0.061562493 5.3672581 1.4800692 9
-4.8778749 6.1429982 1.5910864 23
-4.6982121 6.1385899 1.56838 22.333334
-4.5792131 6.1651211 1.5580764 27
-4.5837164 6.3040266 1.5800195 15.25
3.7830467 6.3633857 1.4580925 1
3.6787224 6.463686 1.4654863 23.375
3.907409 6.4240675 1.4803026 18.4
4.100925 6.4443021 1.5027963 10.142858
4.2768164 6.4324164 1.5187697 11.4
3.6423635 6.7007737 1.5029961 15
3.6381755 6.8964939 1.5366104 15
-9.6773071 7.0300045 1.5300965 1
-9.4912367 7.1021791 1.5167722 7.8333335
-9.2542515 7.1589398 1.4975575 2
-8.9169617 7.0298142 1.4550251 8.5
-8.7041302 7.0386977 1.435079 13
-8.5289774 7.0502992 1.4191548 13.666667
-8.3714352 7.0479236 1.4039618 14
-6.6083264 7.0781088 1.5971488 22
-6.4955201 7.1325684 1.5911001 21.666666
-6.3557901 7.1557007 1.5786896 20
-4.620604 7.1127014 1.4022315 45
-4.5946398 7.1279016 1.4019185 45
-3.2999909 7.1939735 1.5963655 18.333334
-3.1068799 7.1715837 1.5763177 23
-2.90994 7.1314597 1.553497 31.285715
-2.7091491 7.1401052 1.5398132 30.428572
-2.5105107 7.1450729 1.5265112 34.285713
-2.2996163 7.1451583 1.5124253 34.125
-2.092577 7.1482768 1.5001249 32.714287
-1.9026053 7.1492357 1.4893852 36.42857
-1.7026175 7.1561165 1.4801309 37.125
-1.4917731 7.1568489 1.4702089 35.5
-1.29855 7.1719651 1.4648346 17.333334
-0.82282144 7.1577711 1.4458807 6
-0.68684566 7.1745925 1.4456081 36.714287
-0.55941141 7.1712737 1.4420646 38.666668
-0.035039064 7.1844063 1.4373579 38.333332
0.1004668 7.1882639 1.4374851 38.285713
0.31077984 7.1933584 1.4384118 40.857143
0.47240624 7.1910777 1.4387573 39
0.71438658 7.1956887 1.4420645 39
3.6245801 7.0901656 1.5692706 15
6.0829644 7.1845202 1.5092325 1
6.7444634 7.1934309 1.5786896 1
6.9359288 7.1997519 1.5999646 1
-9.4061956 7.2211709 1.5170566 5
-3.2295804 7.2054949 1.592422 19
-0.47279739 7.3184786 1.4688542 36.799999
-0.14195649 7.3251534 1.4655722 32
0.11571125 7.2005324 1.4397749 39
0.24013552 7.2011733 1.4397749 38
0.5195303 7.2052546 1.4418355 41.400002
0.70262712 7.2077613 1.4442997 41.285713
0.90518391 7.2085233 1.4476457 42.625
1.1093272 7.2179408 1.4537992 40.125
1.3023173 7.2257071 1.4603823 38.285713
1.4964389 7.228157 1.4669652 35.5
1.7048948 7.2311902 1.4751698 37.5
1.9011757 7.2268147 1.4825162 38.285713
2.0901382 7.2374887 1.4933102 37.142857
2.2934785 7.2385507 1.5039344 34.875
2.4727678 7.2838163 1.5222998 33
2.9195735 7.3093305 1.554969 27.142857
3.1041894 7.2576637 1.5584581 33.857143
3.2981827 7.2632003 1.5737864 30.666666
3.4958789 7.2659082 1.589696 33.285713
3.6331329 7.2311234 1.5947118 16
6.1031246 7.2086182 1.5142385 1
6.293807 7.2071438 1.5333235 1
6.493598 7.2122498 1.554536 1
6.6655083 7.2042732 1.5715979 1
6.8560777 7.2144608 1.5930816 1
8.6909132 7.2151699 1.4067241 12.666667
8.9846964 7.3586521 1.445641 18
9.1178093 7.3912125 1.460753 14
9.2749872 7.3907356 1.4756209 14.333333
9.4763355 7.3956556 1.4952419 14
9.6420155 7.3943157 1.5110849 14
9.9227457 7.3979416 1.5386274 13
-0.40390703 7.4169197 1.4867138 15
-0.22239217 7.4278674 1.4863322 1
2.586664 7.4224601 1.5546418 11
2.7875235 7.5504761 1.5905139 6
2.8208666 7.4357705 1.5715603 28.666666
9.4848156 7.4026489 1.4965825 15
9.7566481 7.4039302 1.5229062 13
9.824892 7.4032898 1.5294871 13
10.111722 7.4062247 1.5577608 13
10.303926 7.4136992 1.57726 15
10.462359 7.420505 1.5934687 15
-0.51117337 9.6579962 1.5739965 1
-9.0989962 -10.413479 1.755433 4
-9.1080875 -10.314512 1.7471459 4.5
-9.1104975 -9.4940462 1.6740243 14.25
-9.118084 -9.2747641 1.6555814 16
-9.1220465 -9.0895624 1.6399821 15.333333
-9.1213083 -8.9034204 1.6240578 15
-9.1609011 -5.8815727 1.7930049 21
-9.1683922 -5.705379 1.7793636 23.4
-9.1607342 -5.5030012 1.7618743 22
-9.2093592 -5.3777413 1.7585891 19
-9.1562853 -5.3909063 1.7523317 21
-9.3023834 -3.4453697 1.6431406 1
-9.2873783 -3.3285322 1.6346931 1
-9.178916 -3.3450236 1.6193626 1
-9.2100544 -3.0314984 1.6080992 1
8.6439037 -3.125505 1.7874289 9
-9.2327442 -2.9498556 1.6076299 1
12.939953 -2.8490281 1.6411195 1
-7.7916794 -2.6634686 1.6801943 5
8.6522312 -2.5393186 1.7527016 7
10.108183 -2.4373233 1.6537782 1
10.033669 -2.3844576 1.6403247 3
12.858736 -2.2339828 1.6165019 20
12.860904 -2.0981269 1.6139672 26.6
12.850449 -1.8929347 1.6087632 24
12.896024 -1.7618741 1.6119928 22.5
13.201218 -1.735038 1.6486754 1
13.989811 -1.7670305 1.745196 19.5
14.010715 -1.6963451 1.7466584 16
13.995174 -1.5505813 1.7426773 25.333334
14.005175 -1.427519 1.7422712 27
13.995649 -1.2808181 1.7393461 27.5
14.003386 -1.2815579 1.7403212 25
13.911811 2.9080534 1.7592516 20.666666
13.90763 3.0833156 1.7633545 23.5
13.90905 3.2832441 1.7690823 19
13.902902 3.4839356 1.7742618 20.25
13.894922 3.6866965 1.779624 22.25
13.894816 3.8897882 1.786266 24.25
13.890221 4.0950317 1.7927859 22
13.889812 4.2513943 1.798331 21
-5.2976904 6.1334448 1.6430247 18.4
-5.0933323 6.1375084 1.6173544 20.166666
-4.9673548 6.1411786 1.6019626 23
3.7493331 6.2981124 1.7073371 0
-4.5961742 6.5057564 1.6128386 15
3.6848147 6.4696603 1.7349499 17.5
3.9089179 6.4220552 1.7504377 15.8
4.0974226 6.4344373 1.7750155 22.428572
4.2480807 6.431705 1.7926685 22
12.749311 6.5889773 1.7787101 14.5
12.907849 6.5877833 1.7958937 12
-4.6065598 6.7381749 1.6505551 15
-4.5924454 6.6217375 1.6305839 15
3.6451006 6.7003512 1.7778219 12.666667
12.683965 6.6942744 1.7776943 19.666666
-4.6052179 6.9125452 1.6780952 15
12.690517 6.8954892 1.7902267 21
-8.2748337 7.0474429 1.7875818 18.333334
-8.1079931 7.0557618 1.7681838 19
-7.9098425 7.060111 1.744823 18
-7.6870699 7.0582371 1.7181509 10
-7.506681 7.0680656 1.697997 7.6666665
-7.3163462 7.0653701 1.6756006 14.5
-7.1123171 7.0670691 1.6523702 20.75
-6.9143887 7.0709743 1.6303911 20.5
-6.7228007 7.0720754 1.6091161 21.25
-4.6141806 7.0793304 1.7057625 26
-4.5003877 7.0980806 1.6964512 24.6
-4.3062148 7.0937767 1.6751696 25.666666
-4.1038756 7.0964451 1.6548166 25
-3.9063587 7.1027064 1.6362447 26.833334
-3.6975877 7.1098785 1.6174997 26.714285
-3.5033224 7.1612868 1.6085137 21.166666
-2.2842205 7.1489105 1.7884481 23.142857
-2.0934477 7.159555 1.7767506 22.857143
-1.9031185 7.1601119 1.7638961 24.428572
-1.7004987 7.1582341 1.750809 24.875
-1.5039598 7.1643958 1.7410157 23.285715
-1.3472046 7.1645927 1.7329816 13.5
-0.032707319 7.1891556 1.7007385 25
0.087424196 7.1930971 1.7009485 22.799999
0.30201387 7.1931419 1.7008457 25.571428
0.49148703 7.1972351 1.7028381 25
5.3100476 7.1518416 1.7469009 9.8000002
5.4775004 7.172667 1.7692384 3.3333333
5.7023773 7.1850023 1.7973509 1
12.66848 7.0257664 1.7956499 21
-3.4654188 7.2102785 1.6136019 18.5
-3.3664298 7.2021179 1.6034889 19
-1.3478918 7.2902346 1.7613255 0
-0.12587877 7.3061056 1.728595 19.25
0.13362737 7.20438 1.7034382 19
0.31684855 7.2037725 1.7032881 26
0.50604999 7.2053194 1.7048949 26.428572
0.70608032 7.207531 1.7078996 25.75
0.90804219 7.2151508 1.7134671 26.5
1.1000636 7.2254748 1.7206414 26
1.2928199 7.2310705 1.7279202 25.75
1.4992003 7.2289538 1.7351186 24.125
1.7069114 7.2297597 1.7443416 25.25
1.9060565 7.2362313 1.7556695 25.285715
2.0934587 7.2399211 1.7668527 24.571428
2.2987392 7.2472858 1.7810086 23.25
2.4347043 7.2422113 1.7887695 23.5
3.6228664 7.2750101 1.6015807 38
4.9578581 7.3089056 1.7336206 11.5
5.0843387 7.3092718 1.7472063 13.2
5.2377772 7.2905064 1.7609065 14
5.5859799 7.2162299 1.7885737 1
5.6378736 7.2068024 1.793153 1
6.9907842 7.2079134 1.6068478 1
7.1217337 7.2197442 1.6224911 1
7.2929225 7.220839 1.6414719 1
7.4729853 7.2281032 1.662382 1
7.6847439 7.2309475 1.6866293 1
7.900773 7.23493 1.7118154 1
8.0845098 7.23031 1.7326211 1
8.2630997 7.2413878 1.7547306 1
8.4896784 7.2416735 1.7816164 3.5999999
8.6379004 7.2167487 1.7967592 12
10.571577 7.4200501 1.6043149 15
10.689665 7.4219046 1.6162581 15
10.894432 7.4249616 1.6370573 15.333333
11.085663 7.4209499 1.6561095 16
11.306321 7.42946 1.6791428 16
11.514584 7.4280205 1.7003481 16
11.69198 7.4303985 1.7187504 16.5
11.911411 7.4282975 1.7412962 16.666666
12.148863 7.4367561 1.7665231 16
12.340729 7.4378462 1.7866316 16
-4.3945518 -11.432014 1.9923023 7
-4.4046249 -11.342677 1.9797876 7
-4.3963928 -11.215849 1.9607025 8
-4.9129143 -11.078509 1.9735302 17.25
-4.7054167 -11.0823 1.9605148 20.200001
-4.4981022 -11.08168 1.9473274 19
-4.3976374 -11.108466 1.9450591 10
-9.1297073 -8.0519638 1.9937103 20
-9.1322279 -7.8852434 1.9768935 19
-9.1354017 -7.6961079 1.9580954 20.333334
-9.1332207 -7.5056105 1.9388016 20
-9.1343117 -7.2941647 1.9181523 18.5
-9.1149559 -6.8485122 1.8730993 7
-9.1484461 -6.701262 1.8637133 21.75
-9.1459694 -6.5279636 1.8475484 21
-9.0900183 -6.297781 1.8195987 1
-9.129694 -6.1143017 1.8087527 9
-9.1619596 -5.9760866 1.8011394 21
-9.1873856 -3.6233659 1.9986544 1
-9.2171001 -3.4292765 1.9908314 1
-9.1842709 -3.5110261 1.9903541 1
-9.2150965 -3.2102683 1.9763298 1
-9.1808949 -3.3074937 1.9762535 1
-9.2221651 -3.0518041 1.9679341 1
-9.3046532 -2.9340134 1.9763298 1
-9.1849508 -2.9683287 1.956104 1
-7.8073826 -2.6655824 1.9916754 6
11.493566 -2.4055641 1.866529 1
13.882879 4.3527937 1.8012558 22.5
13.889982 4.5140171 1.8082025 23
13.887784 4.6999602 1.81523 22.333334
13.875139 4.8823848 1.8211815 21
13.868876 5.0962267 1.8294687 21.75
13.864379 5.310061 1.8383042 21.25
13.858571 5.4958177 1.846034 21.285715
13.855736 5.7047567 1.8554573 22.25
13.84812 5.9125681 1.8645929 22
-5.2957282 6.1355057 1.9439856 22.200001
-5.0944686 6.1430907 1.9145921 25.166666
-4.8999543 6.1515398 1.8870281 27.6
-4.7019582 6.1472468 1.8573796 28.333334
-4.5816936 6.1727495 1.8447824 27
13.839607 6.1068869 1.8732632 22
-4.5920467 6.3195887 1.8731261 19
3.7691317 6.3282089 1.9847664 1
13.840951 6.2853384 1.8824818 22.5
-4.6039162 6.5674067 1.9205909 18
-4.5914807 6.4578633 1.8985455 18
3.6821792 6.4311852 1.9977072 45
4.3280106 6.4337835 1.8029413 17
13.084412 6.5940065 1.8155146 11
13.311857 6.5955276 1.8404979 12
13.472404 6.5896811 1.8578032 9
13.603943 6.5968928 1.8726714 9
13.84101 6.508183 1.8941203 23.5
-4.6054392 6.7173262 1.9488221 17.75
13.758886 6.6145768 1.890708 15
-4.6103406 6.8991718 1.9837271 17.666666
3.6392753 6.8933139 1.8170007 12.25
-9.6755695 7.0339217 1.9622669 1
-9.5054817 7.0913887 1.9457476 13.6
-9.3351421 7.1469584 1.9292593 13
-9.0750217 7.0539327 1.8874912 8
-8.8780622 7.0294724 1.860376 7.3333335
-8.6880159 7.0309997 1.8368064 7.3333335
-8.5149698 7.0440788 1.8166786 10.333333
-8.3926945 7.0453124 1.8017651 17
-6.8904333 7.0508347 1.9857748 17.25
-6.7017879 7.0549612 1.9604926 18.5
-6.5098119 7.1021237 1.9412209 17.5
-6.3691998 7.1477041 1.9290092 15
-4.4252968 7.0965166 1.9975241 26
-4.3072491 7.0990982 1.9832772 29
-4.1041441 7.101572 1.9589825 28.5
-3.9065783 7.107862 1.9369372 31
-3.6992075 7.1186728 1.9155777 30
-3.5127788 7.1397924 1.8995578 26
-3.2513213 7.194417 1.8836988 23
-3.064702 7.1500754 1.8561049 29.666666
-2.9105225 7.1376576 1.8389657 26.571428
-2.7082424 7.1450181 1.8223191 21.857143
-2.4957187 7.1510568 1.8056407 23.625
0.069255985 7.1970429 1.9688921 46
3.630722 7.0976367 1.8585043 18.666666
5.7603312 7.1825976 1.8038384 1
5.8965416 7.191906 1.8215836 1
6.0673594 7.1883464 1.8418094 1
6.3109641 7.1827226 1.8712574 1
6.562284 7.1869311 1.9038223 1
6.7008452 7.1911225 1.9223944 1
12.687506 7.1228952 1.8035715 21
-3.4928234 7.208365 1.9114428 21.333334
-3.3210175 7.2040815 1.8927867 23.200001
-3.1693845 7.2150297 1.8798747 22
-0.043988518 7.2170463 1.9750606 44.75
0.12944806 7.2078528 1.9715147 46.599998
0.30660105 7.214426 1.9733137 46.25
0.50702316 7.2189922 1.9759666 46
0.70953166 7.2212667 1.9795253 45.5
0.89895666 7.2274389 1.985284 43
1.0898554 7.2303519 1.9915602 41.625
1.2507706 7.2323742 1.9977072 42.25
2.4905937 7.2881689 1.8027165 25
2.9244678 7.3146505 1.8408937 23.428572
3.1083274 7.260675 1.8444929 31
3.3050735 7.2724094 1.864278 33.5
3.5011902 7.270927 1.8821564 34
3.6227021 7.2352924 1.8863981 25.5
5.8696136 7.2219734 1.8229194 1
6.1830764 7.2013636 1.8580283 1
6.2925267 7.2019467 1.8717663 1
6.5008025 7.2181678 1.900515 1
6.7174778 7.2088552 1.927101 1
6.9236193 7.2090106 1.9541959 1
7.0960841 7.2156105 1.9781107 1
7.2220774 7.2206607 1.9957923 1
8.7380085 7.2241135 1.8095868 18
9.0898199 7.3887773 1.8690319 19.666666
9.3535385 7.3976059 1.902196 21
9.4852524 7.3976927 1.9184653 19
9.6851969 7.3962727 1.9431819 19
12.682033 7.2918653 1.8133819 21
2.5565455 7.408392 1.8337597 21
2.7117913 7.5324192 1.8721137 8
2.8255012 7.4405651 1.860454 29
9.2611837 7.4015284 1.8912456 19
9.4938078 7.4042749 1.920186 19
9.6969252 7.4052057 1.9455284 19
9.9102249 7.4097171 1.9726958 19
10.086929 7.4092979 1.9949617 19
12.538311 7.4396534 1.8074713 17
12.680202 7.4366555 1.8222173 26
2.7406914 7.620481 1.8934466 6.3333335
-0.54375994 9.4718094 1.8870311 1
-4.3721261 -11.615366 2.0179577 1
-4.3950772 -11.555248 2.0104487 7
-9.1246548 -9.0539856 2.1002421 17.5
-9.1119967 -8.8903856 2.0808442 20
-9.1197882 -8.7161293 2.0628023 20
-9.1237869 -8.5053139 2.0406404 20
-9.1227922 -8.302249 2.0190005 19.333334
-9.1283073 -8.1650953 2.0052865 19
8.7353687 -6.2886457 2.0984473 1
-9.1435604 -5.8912086 2.1895587 20
-9.1436758 -5.6881089 2.168818 22.799999
-9.1461039 -5.4911513 2.1495843 23
-9.1588993 -5.3674145 2.1396623 23
8.6471996 -3.130043 2.1165233 9
8.6430836 -2.5397775 2.0722077 8
10.01837 -2.3843665 2.0011351 1
12.862211 -2.2391498 2.0742741 20
12.859085 -2.102324 2.0701442 27.6
12.857789 -1.8985262 2.064888 28
12.876389 -1.7636514 2.0647316 21
13.172297 -1.7357782 2.1105669 5
-4.9045844 6.1615324 2.1865418 28.6
-4.7056355 6.1558971 2.1517045 28
-4.5920248 6.1682281 2.1353991 34
-4.5979567 6.2862325 2.1614103 20.75
3.8368881 6.3964558 2.009613 5
-4.6054778 6.4109445 2.1892335 22
3.689775 6.4781809 2.0098348 28.857143
3.938545 6.4433994 2.0340714 35
4.103364 6.4392343 2.0556087 36.42857
4.2876906 6.4397383 2.0816681 31.799999
3.647337 6.6989861 2.0568905 21
3.6393933 6.888341 2.1012349 20.75
-8.3151836 7.0341191 2.1891453 8.333333
-8.1074772 7.0334544 2.1580753 14.5
-7.91254 7.0401459 2.1301219 16.333334
-7.7182264 7.0413499 2.101882 15.5
-7.5072789 7.0475578 2.0722113 12.75
-7.3036418 7.0565882 2.0443532 7.75
-7.0895071 7.0481005 2.0130606 10.25
-4.6109066 7.054378 2.0132706 25
-4.5153852 7.099432 2.0095592 27.75
-3.0654612 7.1583219 2.149893 29
-2.9106157 7.144639 2.129631 37.42857
-2.7081106 7.1518021 2.1102564 35.42857
-2.5105815 7.1597414 2.0928047 39.42857
-2.3019202 7.167191 2.0754824 41.75
-2.0927918 7.1660795 2.0573096 40.142857
-1.9036572 7.1704602 2.0434816 39.857143
-1.7020832 7.1735744 2.0296717 44.5
-1.4925115 7.1801634 2.0176365 44.25
-1.3065797 7.1705613 2.0041778 14.75
3.6294436 7.1189365 2.155587 20.25
5.3106251 7.1473303 2.0665393 16.200001
5.5141621 7.1652198 2.0974922 4.8000002
5.7183142 7.1748948 2.1276357 2.4000001
5.9034886 7.1833153 2.1554399 2.75
6.091742 7.1873474 2.1834235 2.2
-3.2906892 7.2178111 2.1900961 24.666666
-3.1670594 7.216651 2.1755159 26.5
-0.23783453 7.3128314 2.0032289 13.333333
-0.1363515 7.3142052 2.0021071 18.5
1.3410286 7.237937 2.0027544 42
1.5031623 7.2384229 2.010066 44.125
1.7005676 7.2495546 2.0229237 45.142857
1.898438 7.2508106 2.0345893 43.375
2.0995555 7.2537675 2.048214 41
2.2905176 7.2568636 2.0624859 42.42857
2.448534 7.2778683 2.0798821 40.25
2.9194605 7.3319669 2.1340187 29
3.0892437 7.2802835 2.1373217 39.714287
3.2963464 7.2799597 2.1582491 37
3.4952185 7.2849102 2.1807787 40.333332
3.6164479 7.2811632 2.1933746 37
4.9492149 7.2899947 2.0467882 26
5.0819049 7.3012519 2.0658193 32.400002
5.2442064 7.297112 2.0860424 26.25
7.3529248 7.228991 2.014746 1
7.4961205 7.2210746 2.033318 1
7.6838984 7.2275929 2.0602856 1
7.8677635 7.2266083 2.0859811 1
8.0803385 7.2481127 2.1190548 1
8.2929029 7.2654777 2.1518743 1
8.4962435 7.2437944 2.1786637 3.5999999
8.6366653 7.2131495 2.1953785 10
2.8594561 7.4886265 2.1680102 11.5
10.281907 7.4190602 2.020669 19
10.498649 7.41572 2.0480974 18.666666
10.70063 7.4241734 2.0748997 19
10.894589 7.4204955 2.0997207 18.666666
11.101937 7.4264994 2.1273053 19
11.303432 7.4228559 2.1534297 19.333334
11.525429 7.4294882 2.1833088 20
11.639538 7.4191799 2.1975443 16
-8.962347 -25.310724 2.3954711 5
-8.9615021 -25.035347 2.3728106 5
-8.9476089 -24.743206 2.348407 5
-8.9706717 -24.296354 2.3124988 5
-4.6766009 -11.064417 2.39153 20
-4.4938946 -11.065036 2.3775058 19.5
-4.3941412 -11.146879 2.384661 12
-9.1101122 -7.6716743 2.3872051 20
-9.1162043 -7.4892559 2.3657711 20
-9.118475 -7.2791409 2.3407748 19
-9.1241131 -7.1532111 2.3266549 1
-9.1048241 -6.8385835 2.2869668 1
-9.1270657 -6.7067666 2.2754419 19.799999
-9.128459 -6.4885921 2.2511899 14.5
-9.0656929 -6.2316656 2.2129328 1
-9.1307764 -6.0981302 2.209193 11.2
-9.1985111 -3.6257796 2.3689184 3
-9.2134495 -3.5176592 2.3632946 4
-9.1952047 -3.4804869 2.356396 3.6666667
-9.2032986 -3.3111677 2.3448484 3
-9.1914902 -3.3075857 2.3420367 3.25
-9.1826048 -3.0887477 2.3238533 1.6666666
-9.2111902 -2.8825912 2.3157549 0.33333334
-9.1860952 -2.9119427 2.3121555 0
-9.2701206 -2.7934225 2.3228033 0
-7.8157873 -2.665261 2.3072548 5
9.4713879 -2.5287886 2.2553179 0
10.018909 -2.3881223 2.3695931 4
13.963848 -1.695357 2.2341499 17.5
14.023891 -1.7273418 2.2441618 26
13.996665 -1.4071813 2.2341502 25
14.01245 -1.5078387 2.2383215 25.666666
14.007819 -1.2868272 2.2340717 25
13.991609 -1.1157 2.2291441 25
14.004539 -1.0844728 2.2308128 25
13.985729 -0.89775729 2.2257028 28
14.000343 -0.89873242 2.228049 26.5
13.983521 -0.70472056 2.2235909 27.5
13.980173 -0.51200718 2.2217135 28
13.975096 -0.32066944 2.2199926 30
13.96386 -0.1027257 2.2176933 28.4
13.962074 0.11278959 2.2174118 29
13.957725 0.30227709 2.2171769 30
13.961967 0.49626815 2.2187412 28.5
13.96699 0.68940818 2.2208531 26
13.960638 0.90383816 2.2218232 24.799999
13.953898 1.121115 2.2232778 24
13.952032 1.3155103 2.2257025 24
13.946074 1.5086671 2.2278924 24.25
13.939653 1.6997632 2.2303956 25
13.943603 1.8976784 2.2350888 25
13.937732 2.0925612 2.2386084 25
13.934943 2.2885885 2.2430668 25
13.933722 2.4857416 2.248229 25
13.926279 2.6826091 2.2528439 25
13.923733 2.8814077 2.2587104 25
13.916368 3.0802455 2.2642636 25
13.912173 3.2796175 2.2707558 25
13.910341 3.480767 2.2781081 25
13.905386 3.6850266 2.2855389 25
13.900792 3.8869224 2.2933605 25
13.896634 4.091732 2.3018081 25
13.892809 4.299571 2.3108811 25
13.882574 4.5069561 2.319407 25
13.874798 4.7168469 2.3288713 25.5
13.87864 4.9058022 2.3393784 27
13.870684 5.0921679 2.3483472 27
13.860395 5.303761 2.3587501 26.25
13.860984 5.4912553 2.3697565 27
13.854303 5.6985359 2.3812375 27
13.844405 5.905726 2.3926406 27
-5.3019366 6.1455154 2.2529027 23.4
-5.099885 6.1526413 2.2185662 27.166666
13.827214 6.0065403 2.3965292 27
-4.6107326 6.5106468 2.2114918 19.666666
12.70238 6.5866361 2.2760744 23
12.86812 6.5895061 2.2995396 10
13.150391 6.5937548 2.339587 11
13.315341 6.5915432 2.3627391 11
13.503572 6.5993981 2.3899586 11
-4.6199198 6.6918025 2.2521265 18.25
12.691981 6.6929893 2.2825403 25
13.051752 6.6000314 2.3261335 10
-4.6239285 6.8982205 2.2978079 17
12.681984 6.8851309 2.295707 25
-9.492198 7.1357932 2.3818624 1
-9.0430536 7.0068898 2.2968891 1
-8.9196978 7.014267 2.2786987 10
-8.7011185 7.0192027 2.2457521 9.75
-8.492795 7.0286345 2.2152226 5
-7.100687 7.0638533 2.387814 9.25
-6.8945112 7.0592446 2.3530591 9.25
-6.7030511 7.0605912 2.3221283 17.75
-6.5105305 7.1078668 2.2991831 20.166666
-6.3589606 7.1415892 2.2809625 14
-4.6205001 7.0727572 2.3357248 30.666666
-4.4998369 7.106894 2.3252687 32.200001
-4.3103986 7.1094742 2.2981963 28.5
-4.1082783 7.1134758 2.2705026 29.833334
-3.909425 7.1180634 2.2443619 30.166666
-3.6983922 7.1222386 2.2175555 32.57143
-3.5544031 7.1493645 2.2056253 26
5.3011947 7.156991 2.3926651 19.5
6.3062186 7.1883264 2.2152767 1.4
6.5016451 7.1885624 2.2447453 2
6.7136192 7.199738 2.2791626 1
6.9381657 7.194592 2.3133554 1
12.679872 7.1128368 2.3130713 25
-9.4450035 7.231863 2.3856151 1
-3.4644291 7.2210245 2.2115953 23.4
4.974165 7.3256335 2.3807595 32.5
5.0534377 7.3090453 2.3886967 34
6.6873379 7.2040505 2.2758634 1.6666666
6.8879261 7.2032256 2.3069441 1.25
7.1196446 7.2099118 2.3447359 1.5
7.3208809 7.2175536 2.3783662 0.5
7.4419661 7.2168846 2.3979368 1
8.7325306 7.2156296 2.2098799 14
9.085907 7.3829503 2.2834051 18.333334
9.2790909 7.3861699 2.3127897 18
9.4772577 7.3885207 2.3430648 18
9.6897964 7.3970218 2.3765199 18
9.825695 7.3958931 2.3972545 18
12.677147 7.3125472 2.328532 25
11.72846 7.4199209 2.2094333 20
11.878798 7.4305754 2.2303958 16
12.106099 7.4330554 2.2610569 18.333334
12.310742 7.4442668 2.2895279 14
12.461422 7.4458504 2.3100207 15.5
12.641059 7.4367938 2.3336425 27
2.8591146 7.6575603 2.2107153 1.5
-8.9585972 -25.862396 2.4407921 5
-8.9411983 -25.530149 2.4129021 5
-8.984684 -18.532841 2.5804887 2
-8.9844646 -18.291101 2.553921 2
-8.9732456 -18.118858 2.5344219 2
-8.9907665 -17.920441 2.5137041 3.5
-9.0030432 -17.715242 2.4920113 2
-9.0030155 -17.565187 2.4756808 2
-4.3726854 -11.610847 2.4667089 1
-4.3897243 -11.530141 2.4533522 7
-4.3850417 -11.345777 2.4197698 7
-4.9126964 -11.071773 2.4117558 16.75
-4.7939901 -11.067924 2.4014521 20
-9.0954666 -9.0540314 2.5644031 16
-9.0971918 -8.9014921 2.5440819 17
-9.0975266 -8.6912947 2.5160649 18
-9.1049643 -8.5134468 2.4936764 18.666666
-9.1087017 -8.3116999 2.4679492 19
-9.1094055 -8.087923 2.4393277 20
-9.1054106 -7.8867011 2.4132824 20
-9.1175251 -7.7838488 2.4022152 20
8.6870184 -6.8704376 2.5582521 1
8.6975193 -6.7112885 2.5371816 1.5
8.7016296 -6.4981318 2.5077131 0.40000001
8.6993456 -6.3126106 2.4814689 0.33333334
-9.1468487 -5.8651581 2.5904951 21.333334
-9.1557331 -5.6909771 2.5711493 23.799999
-9.1590805 -5.49436 2.5485418 22
-13.96089 -5.2691488 2.4353247 2
-9.1574306 -5.3622179 2.5329075 22.5
8.6683798 -3.1404395 2.4563346 11.5
-9.754405 -2.7872615 2.4298799 0
12.838623 -2.0106795 2.5247147 24
12.839569 -1.8980649 2.5215664 28
12.84684 -1.7628947 2.5191813 21
13.113884 -1.7302448 2.5697458 3
13.83785 6.1152744 2.4050806 27
13.838346 6.2783465 2.4158487 26.25
13.831413 6.4977312 2.4296148 27.25
13.708256 6.6130791 2.4199944 13
-8.2739925 7.0301328 2.5846462 10
-8.1045532 7.0358906 2.5555151 10
-7.9128213 7.0453987 2.5233097 11
-7.7222033 7.0486355 2.4907293 13.75
-7.5035415 7.049015 2.4532747 17
-7.2967906 7.0550056 2.4191947 13.5
5.4778771 7.1632156 2.4217565 4.5999999
5.7076073 7.1827922 2.4628916 1
5.9070578 7.1833067 2.4958045 1
6.0922017 7.1828547 2.5268369 1
6.3071494 7.1852679 2.5641758 1
6.4016738 7.19521 2.5826383 1
5.1557555 7.3235612 2.4071589 33
5.2467537 7.2953396 2.4146647 26.5
6.2362027 7.2012777 2.5552034 1
6.4646888 7.2173843 2.5981677 1
7.5217428 7.2167301 2.410984 0.5
7.6813192 7.2199464 2.4378657 0.75
7.8949351 7.2218304 2.4738579 0
8.0916557 7.2284417 2.5081627 0.33333334
8.2946968 7.2365284 2.5441551 0
8.5075626 7.22367 2.5790224 5.25
9.9291363 7.394763 2.4130917 17
10.253503 7.395618 2.4636559 16
10.119376 7.4038644 2.4436846 16
10.337893 7.4034104 2.4777758 18
10.498834 7.4122262 2.5041075 15.666667
10.690302 7.4127307 2.5344462 15.5
10.8915 7.4146724 2.5666926 15.666667
11.040514 7.4096146 2.5899715 15
-8.9697685 -19.338913 2.6687219 2
-8.9703054 -19.085653 2.6406918 2
-8.9857082 -18.948118 2.6263113 2
-8.9749432 -18.759014 2.6048625 2
-6.0086441 -15.921755 2.7475679 2
-5.8888879 -15.942593 2.7438135 2
-5.6964798 -15.934899 2.7319248 2
-5.5107474 -15.932625 2.7214956 2
-5.3865237 -15.941901 2.7162812 2
-9.1292 -7.4140944 2.7938507 19
-9.1257563 -7.2796154 2.7740552 16
-9.0543652 -7.0691299 2.7313144 0.5
-9.0517864 -6.8942156 2.7065697 0
-9.1347752 -6.7072906 2.6965818 17.200001
-9.1375694 -6.513998 2.6713274 16.333334
-9.057147 -6.2684174 2.6239378 0
-9.1010275 -6.087728 2.6093159 7.8333335
-9.1536789 -5.9639077 2.6039922 21
-9.2050295 -3.6424453 2.746212 4
-9.1917982 -3.6015167 2.738965 5
-9.2112923 -3.4576607 2.7303379 3.6666667
-9.1906242 -3.544723 2.7332711 4.5
-9.2087107 -3.3101349 2.7163613 2.3333333
-9.1953773 -3.3056476 2.7125654 2.5
-9.2112064 -3.130321 2.7014363 1
-9.192606 -3.0168304 2.6872013 1
-9.2236147 -2.8719351 2.6835778 1
-9.1857567 -2.9202955 2.6777112 1
10.058771 -2.4342637 2.7570822 1
10.078471 -2.3861833 2.7591529 4.5
13.752532 -1.7678297 2.6937716 7
13.995552 -1.6863827 2.7386754 20.666666
14.002266 -1.6537949 2.7391841 2
13.98468 -1.5080343 2.7325697 26.666666
14.005591 -1.4105247 2.7346048 28
13.984037 -1.287047 2.7281172 25
10.405413 -1.1934923 2.789176 1
13.982073 -1.0932012 2.7244921 24.5
13.982771 -0.8999939 2.721916 24.5
13.971878 -0.70771426 2.7176228 26
13.963296 -0.51372898 2.7142835 26.5
13.960638 -0.29946688 2.7125473 28.4
13.952526 -0.080948934 2.710372 27.5
13.950868 0.1090689 2.7100861 28
13.95048 0.29971856 2.7105629 27.5
13.946381 0.49272016 2.7108493 27
13.939087 0.68564355 2.71104 26.5
13.943469 0.89983702 2.7143025 25.6
13.94223 1.1171396 2.7171454 25
13.940762 1.3119695 2.7201986 24
13.934345 1.5043528 2.7227745 23
13.931705 1.6963899 2.7265906 22
13.920046 1.8914152 2.7292621 23
13.920362 2.087431 2.7347956 23
13.919895 2.2835972 2.7407107 25.5
13.919996 2.4807794 2.7472937 25
13.911476 2.6772687 2.7527316 24.5
13.908392 2.899709 2.7607839 22.799999
13.894052 3.0977876 2.7662792 22
13.894855 3.2974315 2.7752852 24
13.89032 3.5239978 2.7850738 24
13.887928 3.7029431 2.7935011 23.333334
13.875862 3.8257568 2.7975717 22
7.3592815 6.5751896 2.6416492 1
7.5244293 6.5881443 2.676719 1
7.708889 6.5918922 2.7142913 1
7.9242249 6.5942311 2.7582901 1
8.0901251 6.5916333 2.7917643 1
12.72067 6.5934939 2.7880311 18
7.2472262 6.6781535 2.6386173 1
7.8256254 6.604166 2.7400002 1
8.0478649 6.6028981 2.7850349 1
12.661227 6.7016926 2.7877452 22.5
7.1009893 6.8965769 2.6514843 1
-9.2672739 7.0781693 2.7718058 1
-9.0963125 7.0267334 2.733114 1.5
-8.9162083 7.0165939 2.6986215 7
-8.7012939 7.0243354 2.6605673 12.5
-8.4977198 7.037672 2.6257374 12.333333
-8.3664408 7.0313339 2.6012926 10
-7.2306914 7.0731111 2.7917643 16
-7.0986981 7.0662694 2.7649765 15.25
-6.9030514 7.0720382 2.7286124 12
-6.7115693 7.0729537 2.6926365 13.75
-6.5024276 7.0783644 2.6547971 21.799999
-6.3275962 7.0875874 2.624567 21.333334
6.5821586 7.1992989 2.6152496 1
6.9306021 7.1243677 2.6634638 1
6.5221314 7.2070599 2.6061909 1
6.698761 7.2039061 2.6369903 1
6.809967 7.2021947 2.6566606 1
8.6827106 7.2205334 2.6091659 10.5
8.882616 7.3117476 2.6579802 19
9.0943098 7.3846803 2.70627 20
9.2826204 7.3838177 2.7397127 20.666666
9.484498 7.3889785 2.7767544 19.666666
11.137769 7.4203205 2.6067626 15
11.30552 7.4195876 2.6337302 15
11.512286 7.4180307 2.6670585 15
11.69733 7.4253368 2.6979694 15
11.878043 7.4272709 2.7277355 15
12.065369 7.4322023 2.7590284 15
12.258952 7.4369617 2.7914658 15
-8.0004768 -16.608162 2.9747107 2
-9.0709171 -12.023243 2.9929602 10
-9.0710249 -11.896368 2.9734976 10
-9.0749702 -11.697476 2.9436042 9.333333
-4.3843613 -11.628523 2.9270217 4
-9.0627995 -11.514542 2.9143469 2
-4.3987989 -11.483238 2.8971033 8
-4.3938222 -11.299213 2.8572869 8
-4.9174814 -11.073233 2.8577368 13.75
-4.7073135 -11.071001 2.8372214 17.799999
-4.5005054 -11.069906 2.8179207 15
-4.3941078 -11.135799 2.8224196 9.5
-3.2882872 -9.8845139 2.8499985 1
-3.1000502 -9.8446627 2.8234439 1.4
-2.9302716 -9.8466311 2.809752 3.5
-7.9927492 -9.4886608 2.9364698 1
-7.5409737 -9.5846443 2.8865306 1
-4.03123 -9.4969492 2.8274813 8
-3.9050739 -9.5257215 2.8209591 10
-7.9258528 -9.2469921 2.8842812 1
-7.9454665 -9.1079016 2.8632858 1
-9.0986652 -8.6862879 2.9802601 12.333333
-9.1051893 -8.5106325 2.953866 12
-9.1095991 -8.3080978 2.92331 13.5
-9.1163111 -8.117444 2.8953788 15.333333
-9.1182442 -7.9202633 2.86606 15
-9.1186199 -7.6996655 2.8334422 17
9.5200768 -7.7636323 2.8377912 1
9.6543169 -7.7645845 2.8617859 1
-9.1196442 -7.5133767 2.806448 17.333334
-7.3267088 -7.4267569 2.8761392 1
-8.092906 -7.1711936 2.9807022 1
-7.9714441 -6.8936925 2.9077148 1
-7.9517412 -6.7333579 2.8761392 1
-9.1663589 -5.6928959 2.9803915 30.799999
-9.1576138 -5.4901977 2.9505496 32.5
-9.1681461 -5.3651109 2.9361851 25
-9.7303734 -2.7768002 2.8067756 1
12.856214 -2.0180061 2.9954069 12
12.841448 -1.9028277 2.9879832 32.25
12.847408 -1.7674809 2.9848342 22
13.879346 3.9285371 2.8036776 22
13.871691 4.0816865 2.8106422 23
13.866484 4.2879596 2.8214228 23.5
13.869327 4.4986348 2.8344934 22.5
13.862037 4.7091484 2.8462279 22
13.853213 4.8930802 2.856468 23.333334
13.846406 5.0797038 2.8676939 22
13.844357 5.313427 2.883512 23.200001
13.842466 5.5102782 2.8972831 23.142857
13.832503 5.6996078 2.9094949 22
13.828744 5.8952985 2.9237235 23.142857
13.825484 6.0920076 2.9385526 22.285715
13.822243 6.2680788 2.952127 22
8.1487417 6.59374 2.8041875 1
8.2288532 6.590807 2.8202343 1
12.883904 6.5949287 2.8162708 10
13.103535 6.5953083 2.8542418 13
13.277187 6.5981898 2.8845806 12
13.495271 6.5923786 2.9219792 10
13.819411 6.4891024 2.9698722 22
8.3345881 6.6080298 2.8450809 1
8.4829121 6.609405 2.8762684 1
8.6699276 6.6151738 2.9165149 1
13.394936 6.6000199 2.9051881 10
13.711226 6.6116114 2.9612856 13
12.659898 6.8983841 2.8058403 22.666666
-8.2511444 7.0412173 2.9905372 18
-8.1121569 7.0467033 2.9629729 15.5
-7.8792496 7.045927 2.9154797 11.25
-7.6941705 7.0524735 2.8794174 15
-7.5136266 7.0619078 2.8452106 15
-7.3286033 7.0640292 2.8091915 16.666666
12.654897 7.0957575 2.823808 22
9.6863213 7.3890109 2.8133466 18.333334
9.8989611 7.3931012 2.852788 18.666666
10.075365 7.3925376 2.885181 18
10.3317 7.3934631 2.9328706 16
10.450832 7.3985624 2.9558153 15.5
12.650332 7.2929425 2.842221 22
10.196877 7.4023886 2.9090257 16
10.268165 7.4010062 2.9220729 17
10.575317 7.4090581 2.9805601 16
10.651969 7.4089427 2.994957 14
12.395555 7.4321275 2.8135996 16
12.516777 7.4443512 2.8349702 14
12.64189 7.4343863 2.8548145 24
-8.9652367 -23.741779 3.1654615 3
-8.9702654 -23.522596 3.1406 3
-5.2940722 -14.453022 3.0465775 2
-5.0840859 -14.42303 3.0267971 2
-4.891562 -14.440371 3.0172882 2
-4.699007 -14.45989 3.0086064 2
-9.0560417 -13.00232 3.1440811 2
-9.053894 -12.85647 3.1208022 8
-9.0577335 -12.678993 3.0933256 10
-9.0628042 -12.497236 3.0654676 9
-9.0675402 -12.284335 3.032903 10
-9.0602255 -12.100827 3.0036454 10
-9.0925503 -9.8932257 3.1759675 10
-9.0990934 -9.6970091 3.1441746 10.666667
-9.1026058 -9.5016966 3.1123812 12
-9.1025229 -9.3079252 3.0805883 12
-9.1046286 -9.1191711 3.0502949 12
-9.0990057 -8.8985453 3.0139654 12
-8.4689293 -7.8080764 3.1691222 1
-8.4006929 -7.6466818 3.1266761 1
-8.4263792 -7.5649552 3.1173584 1
-8.3809538 -7.5756869 3.1101115 1
-9.0875282 -7.2183809 3.1950042 1
-9.0856142 -7.0884237 3.1733925 2
-9.1220398 -6.8915076 3.1495554 10.2
-9.1526031 -6.6918645 3.1247349 22.5
-9.1535082 -6.5210919 3.098551 15.666667
-9.1066723 -6.2972941 3.0543103 4.1999998
-9.1479855 -6.0916653 3.0330873 16
-9.1661158 -5.8968506 3.0090427 28.5
13.155049 -1.7403651 3.0543442 8
-9.2474384 7.0171828 3.1965573 17
-9.1174631 7.0221639 3.1694677 17.666666
-8.9219255 7.0260816 3.1284015 17.666666
-8.7064486 7.0328617 3.0839708 18.75
-8.4903793 7.0367851 3.0393677 18.666666
-8.3490667 7.0470819 3.0117605 20
10.725254 7.4031849 3.0080042 16
10.887738 7.4064937 3.0391972 15.333333
11.097464 7.4151068 3.0802135 13
11.306571 7.4146695 3.1201799 12.666667
11.521754 7.4186201 3.1620955 12
11.651173 7.4182253 3.1870651 12
-6.6216207 -19.900108 3.3726802 3
-6.487649 -19.84763 3.3579755 3
-6.3476086 -19.890209 3.3573494 3
-9.048667 -18.892807 3.3726802 3
-8.9930277 -18.946348 3.3764346 3
-4.274971 -13.349273 3.2915926 1
-4.1177807 -13.337616 3.2776458 1
-5.7306409 -12.493406 3.2343049 1
-4.3919067 -11.63572 3.3932595 5
-4.3895569 -11.451521 3.3471899 6.5
-4.3943038 -11.289121 3.3073318 8
-9.0843229 -11.090454 3.381423 11
-4.8821301 -11.086884 3.3096611 18
-4.421484 -11.08661 3.2599678 17
-4.3934326 -11.180898 3.2804146 8
-9.0959435 -10.912126 3.3517294 6.6666665
-9.1087227 -10.703062 3.3170869 1
-9.1167307 -10.273433 3.2442026 1
-9.0905447 -10.10452 3.2113597 3
-7.0367641 -9.379302 3.2167449 1
-8.332386 -9.1435299 3.3937771 1
-8.1045055 -9.121129 3.3479662 1
-7.9493093 -9.1377039 3.3233786 1
-9.1597776 -7.433022 3.2457328 1
-9.1324196 -7.3319745 3.2232156 1
14.116116 -3.7169855 3.3620772 1
14.083506 -3.5016091 3.3422813 1
13.936235 -1.7234222 3.2327304 10
14.003341 -1.6922117 3.2472022 18.666666
13.990215 -1.4879746 3.2388039 32
14.007698 -1.49107 3.2428529 32
13.992876 -1.2927032 3.2348673 30.25
13.982872 -1.0980614 3.2286811 28.5
13.979845 -0.9046433 3.2247446 28.5
13.978909 -0.71294439 3.2219326 27.5
13.973936 -0.51894385 3.2187834 27.25
13.967624 -0.30440578 3.2158589 28.6
13.962987 -0.08576861 3.2140594 29.5
13.960917 0.10437304 3.2136095 29.25
13.952785 0.29494166 3.2123723 30
13.949715 0.48801765 3.2129345 29.25
13.949797 0.70493174 3.2151389 28.4
13.949079 0.91946459 3.2178833 28
13.950874 1.1130322 3.221595 26
13.941102 1.3071905 3.2232823 26
13.934176 1.4994659 3.2262068 27.75
13.931944 1.6915216 3.230818 27.25
13.932798 1.8882921 3.2368917 27.25
13.931016 2.0841956 3.2429655 29.25
13.921726 2.2790103 3.2479146 28.25
13.929806 2.4775839 3.2575874 26.75
13.923642 2.6995025 3.2657082 24.799999
13.915504 2.9209042 3.2741213 25.5
13.909688 3.1214609 3.2827821 28.5
13.90464 3.3195362 3.2921171 28.25
13.903669 3.5223582 3.3032522 27.75
13.895779 3.7253547 3.3134878 24
13.895123 3.9020596 3.3242855 27.333334
13.88464 4.0803833 3.3335083 28
13.880919 4.2872958 3.346668 26.25
13.874069 4.4948874 3.3598275 24.25
13.8678 4.7057734 3.3739996 27.25
13.868423 4.8931828 3.3884716 27
13.863976 5.0272627 3.3980694 25
12.716707 6.5858288 3.3022401 16
12.875522 6.5849309 3.3346334 11
13.086025 6.5806484 3.3773737 11
12.672765 6.7023482 3.3059521 24.5
12.658928 6.8921719 3.3241355 23.666666
-9.6671705 7.0409698 3.291285 1
-9.4884281 7.015028 3.2483211 3.5
-9.352602 7.017767 3.2193332 14
12.659373 7.0925045 3.3468931 21.5
9.7738276 7.3985686 3.2788618 19
9.8348246 7.3922324 3.2907672 19
10.162133 7.3981118 3.3616838 21
12.662919 7.294497 3.3709252 23.333334
9.9595394 7.4071798 3.3197551 22.5
10.061483 7.4037042 3.3409781 21
10.284752 7.4077926 3.389636 21
11.750732 7.4257283 3.2073109 12
11.888123 7.4279242 3.2343049 12
12.067024 7.4274807 3.2691724 12
12.262045 7.4330645 3.3080888 12
12.453184 7.4306097 3.3454309 12
12.632048 7.4226089 3.3798482 19.5
-9.0070124 -19.491707 3.4552777 3
-9.0022745 -19.134985 3.4039671 3
-8.0332146 -16.035484 3.5451612 2
-7.8992209 -16.114647 3.5470695 2
-8.3146133 -15.961033 3.5577548 2
-8.1467752 -15.980991 3.5459247 2
-4.8579307 -14.413396 3.5676825 4
-4.797977 -14.403409 3.5609338 4
-4.3997455 -14.55634 3.565433 1
-5.0201058 -14.309622 3.5577846 3
-4.937151 -14.389383 3.5685821 4
-4.4091644 -12.434008 3.5946207 1
-4.330224 -12.413696 3.5821977 1
-9.0655375 -12.271071 3.5919771 6
-4.6247587 -12.349611 3.5941031 5
-4.5104284 -12.374575 3.5893154 2.5
-9.0798082 -12.116405 3.565583 7
-9.0877943 -11.913556 3.5296657 2.5
-9.1444798 -11.783361 3.5141442 1
-9.0833282 -11.28803 3.4163654 6.3333335
-9.1012306 -9.4307528 3.5920327 16
-9.1129637 -9.3118258 3.5716724 14.333333
-9.1258917 -9.0710802 3.5288808 1.6666666
-8.5610628 -9.1932583 3.4455411 1
-9.1582308 -8.9791908 3.5180104 1
-9.1318045 -8.6522093 3.4527881 1
12.847988 -2.2252498 3.4771171 33
12.864793 -2.0919461 3.475564 44.5
12.855522 -1.9094783 3.4654701 44
12.874264 -1.7746103 3.4652114 28.5
13.189722 -1.7496394 3.5480335 7
13.207242 -1.7058476 3.5511394 1
13.860458 5.1344557 3.4059424 24.5
13.860019 5.314589 3.4207447 26.799999
13.855399 5.5099602 3.4363751 25.428572
13.847078 5.7000995 3.4512863 23.285715
13.836423 5.8930001 3.4664543 24.142857
13.832436 6.0894246 3.4838719 21.714285
13.825376 6.2907381 3.5016365 23
13.261196 6.5843887 3.413816 12
13.46209 6.5988836 3.4567814 11
13.638972 6.5995922 3.4934487 11
13.823869 6.5144768 3.5232918 22
13.76353 6.6022081 3.5195427 11
11.311459 7.0827603 3.5673587 12.666667
11.457003 7.0685086 3.5982444 7
10.357347 7.406785 3.4051654 21
10.506248 7.4075751 3.437604 21
10.701533 7.4110641 3.4807405 21
10.903724 7.4130149 3.5254297 21
11.113516 7.4204502 3.5728803 22
4.3968987 12.607965 3.5992796 1
-9.0587215 -12.675636 3.6659861 2.5
