# .PCD v0.7 - Point Cloud Data file format
VERSION 0.7
FIELDS x y z intensity
SIZE 4 4 4 4
TYPE F F F F
COUNT 1 1 1 1
WIDTH 1278
HEIGHT 1
VIEWPOINT 0 0 0 1 0 0 0
POINTS 1278
DATA ascii
40.651573 -3.5443606 0.31200778 68.533333
41.047729 -3.527966 0.35985485 38
41.319874 -3.5449028 0.31603953 51.333332
63.849068 -3.4527881 0.22939199 63
8.382966 -3.2321179 0.35189173 65
11.191731 -3.3107772 0.20484842 19
11.212679 -3.3002479 0.28797728 18.9375
24.037123 -3.2865109 0.27826717 2.0666666
33.481415 -3.2426529 0.30298895 17.200001
35.106472 -3.2811015 0.33684483 30.875
36.723034 -3.3329062 0.33739218 38.714287
38.336426 -3.3573935 0.32188636 56
63.842316 -3.2416596 0.23264682 63
8.3895311 -3.1205342 0.35945848 69.714287
8.4001961 -3.0198877 0.36662605 77.5
11.220349 -3.0919032 0.23936737 19
24.042673 -3.0939677 0.30841473 2.75
29.191027 -3.0554607 0.21009853 1
29.221083 -3.0282938 0.28309557 10.666667
30.963993 -3.1180277 0.27445936 22.799999
31.056602 -3.0522752 0.27929595 22
31.248793 -3.0780418 0.21089751 4
31.533602 -3.0939841 0.3419624 24.5
31.681635 -3.095782 0.28277043 3.6666667
31.88883 -3.09148 0.25287414 4
33.510956 -3.1736352 0.37436223 42.666668
63.848808 -3.0312896 0.2357012 63
8.3972073 -2.9224811 0.37196052 78.599998
8.4073877 -2.8713598 0.3759549 78.25
11.118498 -2.8395779 0.30779219 15.888889
11.23013 -2.9639721 0.24963386 17.5
24.068689 -2.9055867 0.30358434 3.6341465
25.75704 -2.845001 0.29282537 7.1666665
25.813408 -2.8931911 0.29324606 4.5
27.497858 -2.9119308 0.30596638 16.47826
27.636776 -2.8811202 0.28424376 1
29.228245 -2.963903 0.2761485 12.9
63.858559 -2.82109 0.23869687 63
8.41992 -2.7776475 0.38250941 47
11.131659 -2.6903992 0.29853344 21.84375
20.112761 -2.63377 0.29195583 1
20.715969 -2.6055646 0.32044977 1
20.928757 -2.6107523 0.30085099 1
21.059404 -2.6168678 0.28991729 3.8
21.890308 -2.6080089 0.31798458 1.25
23.991318 -2.7502861 0.29406646 6
24.025826 -2.7199898 0.31667557 14.8
25.777805 -2.7711136 0.31572217 24.4
63.87957 -2.6113474 0.24152309 63
-3.0024033 -2.4211464 0.34975886 8
11.152596 -2.4952226 0.28859219 30.731707
11.214726 -2.466357 0.23806214 44.25
16.364964 -2.4436877 0.28557253 8
16.744427 -2.5230401 0.32854441 1
17.042437 -2.4136877 0.30395165 1
17.551165 -2.4666348 0.3077085 3.24
17.633369 -2.4664109 0.29308003 1
18.75028 -2.4632874 0.31099167 20
18.804638 -2.5294821 0.32639897 1
19.922411 -2.5150492 0.30510637 25.266666
20.296602 -2.5711255 0.29198831 1
20.535177 -2.5811231 0.31126222 1
20.728121 -2.5928705 0.2502107 1
20.810276 -2.5978003 0.30906618 1
21.115503 -2.572649 0.31037155 19.285715
21.302896 -2.5698953 0.28197914 1
21.503244 -2.5826318 0.30052558 1.5
21.679777 -2.5926287 0.3004072 1
21.860916 -2.5986733 0.31355476 1
45.9618 -2.4789326 0.20152345 70.5
63.907845 -2.4017911 0.24423695 63
-2.9584208 -2.3613107 0.3529312 8
8.4218359 -2.279649 0.34445795 40.666668
11.172202 -2.2997997 0.2886394 34.942856
11.2191 -2.2929101 0.24097314 52.599998
15.190678 -2.2671394 0.31776813 13.666667
15.225685 -2.2401936 0.30685911 33.200001
16.383924 -2.3126056 0.29670462 15
16.434137 -2.3021264 0.29209423 11.9
16.739035 -2.3859656 0.29738536 1
16.859762 -2.3692701 0.31026015 1
17.105631 -2.3432832 0.29214656 1
17.568247 -2.3720267 0.29886904 30.166666
25.460072 -2.3101978 0.23629323 45.75
41.108643 -2.3004348 0.35859454 21
43.584095 -2.2949567 0.2681711 63
45.962357 -2.2891624 0.20443147 65
8.3834734 -2.1657887 0.21666026 67
8.4383125 -2.0788636 0.29559186 61.125
11.189659 -2.1383383 0.28188843 39.823528
11.233582 -2.058816 0.26055372 39.090908
11.48263 -2.0236244 0.27872688 1.5
11.70247 -2.0380611 0.27257228 1
11.910564 -2.0359025 0.30305156 1
12.098315 -2.0512264 0.31362274 4
12.319587 -2.0817778 0.30518234 2.8181818
12.505994 -2.0900152 0.30441976 3.8333333
12.711064 -2.1010816 0.31763503 2.7692308
12.904036 -2.1056907 0.31230763 9.3809528
13.114646 -2.1188884 0.30621013 2.6666667
13.2966 -2.135915 0.27404335 2.6666667
13.501121 -2.153132 0.2771093 4
13.717454 -2.1648331 0.31302288 3.7777777
13.884741 -2.1666327 0.2943216 10.538462
14.041269 -2.1517391 0.30635723 18.111111
15.236541 -2.1953998 0.35681969 12
25.391068 -2.1243486 0.24466506 56
25.412104 -2.0880997 0.24414687 58
41.153641 -2.1748555 0.35915017 8
44.605804 -2.065007 0.27417988 56
46.028984 -2.1536913 0.20454097 21
63.891418 -2.1905739 0.24755782 63
-2.5791545 -1.8139877 0.21435529 1
7.7099013 -1.8029585 0.34681755 17
7.8971314 -1.8137074 0.36745706 15.666667
8.1387691 -1.8348321 0.36181706 13.75
8.34161 -1.8556808 0.30904287 23.25
8.4436789 -1.9191905 0.29856753 69.694443
11.196381 -1.9862247 0.33134788 9
11.28686 -1.9765196 0.30616766 2.375
11.495361 -1.974651 0.32657677 1
11.702021 -1.9912659 0.32676527 1
11.844729 -1.9913313 0.30896848 2
25.443827 -1.9046007 0.24610543 42
43.568539 -1.9791864 0.27294922 58
43.623035 -1.8906381 0.2725215 19
44.453785 -1.8973404 0.28125578 56
-2.5364432 -1.7801152 0.22393775 1
3.8096638 -1.6051648 0.31745285 25
4.5257864 -1.6105075 0.37653017 3
4.7036605 -1.6211352 0.31002489 1
4.9051924 -1.6298991 0.373631 1
5.2895436 -1.7161634 0.25702685 14.25
5.4853921 -1.6903412 0.36918083 11.8
5.750813 -1.7507855 0.32334125 15
5.9065146 -1.7599902 0.29945889 19.666666
6.1199837 -1.7694845 0.25288197 16
6.2732925 -1.7834324 0.28111669 20.333334
6.477684 -1.7546999 0.25601554 18
6.6623268 -1.7356211 0.26470861 19.333334
6.8656178 -1.6033672 0.3178871 5
7.1002417 -1.6094465 0.28697366 3.8
7.277338 -1.609233 0.29875198 12.333333
7.4951267 -1.7787396 0.32875836 5
7.6123085 -1.7971528 0.33605057 15
-2.4816592 -1.4052048 0.31315142 3
-1.5593097 -1.4027495 0.38551444 1
0.57038879 -1.4013718 0.24150771 4
0.77142096 -1.4003699 0.31964749 6
0.8871336 -1.4118159 0.26647806 3
1.1799841 -1.4220192 0.28954232 3
1.3953171 -1.4368283 0.30632937 3
1.4596424 -1.408179 0.39110631 7
1.6768605 -1.4346851 0.30609551 13.333333
1.882962 -1.4489033 0.29911131 6.5
2.1240592 -1.4786317 0.32009777 4.5999999
2.3172605 -1.4922991 0.3378967 6
2.5253389 -1.5136731 0.32658824 6.5999999
2.7193377 -1.5265863 0.32747692 11.75
2.9108145 -1.5364333 0.31779486 12.8
3.1338468 -1.5427468 0.26356786 11.2
3.3210707 -1.5612583 0.27279896 14.25
3.4867661 -1.5715901 0.2743893 18.272728
3.7068858 -1.5837045 0.29986325 17.555555
3.8586178 -1.5897501 0.3245284 9.3999996
4.1598563 -1.5838823 0.33808944 15.333333
4.3143592 -1.5944813 0.35083985 1.3333334
5.5220642 -1.5972211 0.25154692 100
5.7278228 -1.5003756 0.29809141 6.125
5.9179521 -1.537109 0.30801061 5
6.0940146 -1.5119044 0.32060167 2.7142856
6.3269582 -1.5359924 0.31296796 5.8571429
6.5029688 -1.5358008 0.25367197 7.1428571
6.6778331 -1.5598041 0.28571352 11.166667
6.871316 -1.591495 0.27150184 4
7.2801652 -1.5916196 0.20570946 14
63.967644 -1.5608393 0.25571394 63
-2.6341426 -1.2251425 0.28948665 60.75
-2.5541739 -1.27031 0.29005107 32.266666
-2.2665746 -1.2904174 0.29656655 7
-2.1250522 -1.313988 0.319493 16.4
-1.8968252 -1.3436825 0.30855614 1
-1.6979828 -1.3311405 0.284628 1
-1.0830991 -1.294943 0.22424173 1
-0.92384696 -1.2753619 0.28988028 9.25
-0.67502117 -1.296363 0.30448949 10.777778
-0.51127547 -1.3319024 0.31496766 5.8000002
-0.31174049 -1.3516743 0.35104626 5
-0.099560164 -1.3778574 0.31929183 4.1999998
0.15981507 -1.3612865 0.28350306 8.25
0.29293212 -1.3738246 0.3093394 6.3333335
0.48386154 -1.384194 0.29199699 5.6666665
0.69719172 -1.3926213 0.30910933 6
1.1066656 -1.3674519 0.37637061 7
1.2086697 -1.3635929 0.22480249 10
63.984261 -1.350473 0.25853074 63
-2.6336465 -1.0835193 0.25962919 76.099998
-2.5379841 -1.0913391 0.29655644 49.279999
16.343918 -1.0589048 0.34802702 17.75
16.473944 -1.1604187 0.34315127 11.75
-2.6273024 -0.89693022 0.26663893 80.375
-2.567271 -0.89580172 0.29905108 58.266666
16.289049 -0.99258256 0.32282394 11
27.279556 -0.80381799 0.30450189 17
27.476475 -0.80832142 0.20793259 4
47.11047 -0.93416953 0.27292612 13.5
-2.6259887 -0.69869065 0.27416092 74.545456
-2.5640991 -0.69247019 0.29617551 72.975609
2.9011478 -0.67167258 0.23196231 15
27.303375 -0.73773247 0.29742131 52.607143
27.42054 -0.79895425 0.21522307 9
47.091431 -0.67013186 0.27786115 9
-2.6238225 -0.49711078 0.28052151 70.333336
-2.5569191 -0.49981073 0.28897002 70.930229
23.910715 -0.40768409 0.34669125 1
24.147438 -0.41049817 0.3384169 3
24.438488 -0.42656654 0.3955549 1
24.671165 -0.41699547 0.27310658 4
25.180122 -0.47247595 0.39406538 4
25.303268 -0.47801805 0.38186699 2
25.466297 -0.48071921 0.3791548 2.5
25.755573 -0.47000653 0.3371405 1
25.908176 -0.45367652 0.294361 16.5
26.107819 -0.50642401 0.39478052 2
26.337635 -0.5406487 0.37239695 3.5
26.496157 -0.5535723 0.35693789 1
26.692245 -0.55991149 0.32218543 3.5
26.92864 -0.55740309 0.33126992 2.5999999
27.153528 -0.5534026 0.29176289 9.3999996
27.330372 -0.4830949 0.32330006 22.142857
28.502441 -0.46301082 0.30193692 18
28.602577 -0.40378892 0.30181539 17
29.185966 -0.45936388 0.23156548 62
29.259687 -0.49866247 0.22313288 56.888889
44.359718 -0.45968705 0.30490682 12
47.118366 -0.49668008 0.28000447 9
64.017387 -0.50789034 0.2701301 63
-2.6122844 -0.30294132 0.28573677 57.333332
-2.5472693 -0.3054812 0.28927481 71.61364
19.562603 -0.32480913 0.2971136 44.52174
19.659369 -0.34125188 0.30033576 40.666668
20.902182 -0.20730759 0.32878727 6
21.514399 -0.27283192 0.39836854 1
21.692509 -0.28324115 0.38247007 4.5
21.905388 -0.28196031 0.35771203 2.5
22.189953 -0.26422903 0.32683674 24
22.212471 -0.25746739 0.26463807 4.5
22.523737 -0.31962427 0.39133143 1
22.696564 -0.33909553 0.37462646 1
22.845373 -0.34888923 0.36029935 1
23.455442 -0.28409916 0.30368346 17.384615
23.715931 -0.3901234 0.36559495 1
24.680286 -0.31525224 0.23546144 22.571428
25.902054 -0.3387537 0.250348 11.666667
27.364382 -0.30321288 0.32777688 28.75
28.363367 -0.3506991 0.20507841 43.333332
28.516842 -0.28468111 0.33668187 8.6538458
29.240946 -0.32166103 0.22093181 46.833332
44.27433 -0.30000782 0.30967873 7.5
64.028328 -0.29714215 0.27296382 63
-2.8595989 -0.041062918 0.3146826 62.266666
-2.739553 -0.10741572 0.25480047 17.25
-2.548681 -0.1507697 0.27451953 60.099998
11.83696 -0.0055053011 0.20356274 25
16.707457 -0.0068976581 0.39040315 1
16.85725 -0.022189766 0.386749 2.5
18.067949 -0.046110511 0.39683908 1
18.446381 -0.04209429 0.32040781 26.875
18.701344 -0.11620361 0.39783633 1
18.891453 -0.10960481 0.38495806 1
19.103687 -0.1458686 0.36525536 1
19.384506 -0.1670787 0.33932614 1
19.545216 -0.16481942 0.39907289 1
19.68347 -0.068723917 0.28449315 23.545454
20.094896 -0.16842479 0.34589249 1
20.913778 -0.078648314 0.25928289 19
23.356634 -0.19414973 0.30342358 8
27.367773 -0.12616332 0.33942103 43.833332
27.411814 -0.08764378 0.34348819 14.833333
28.528498 -0.15258847 0.32799783 1.75
28.632166 -0.16165113 0.35435224 4
44.272392 -0.053943157 0.31311935 8
64.032532 -0.086327881 0.27587545 63
-2.8556805 0.10280351 0.2832756 62.914894
11.791224 0.084712483 0.28230688 79
11.844593 0.10356253 0.24568021 49
12.017344 0.15562654 0.26911867 52
14.57655 0.19054031 0.39084738 15
15.656898 0.19100654 0.2123144 1
15.877317 0.13474092 0.31387624 19.799999
16.351082 0.13758539 0.21136594 3
17.131914 0.13807029 0.24044354 18.375
18.434256 0.029678369 0.29244354 19
19.687527 0.0050336719 0.21686411 37
27.370066 0.084893331 0.34039116 47
27.419437 0.036464721 0.34204906 4
44.542175 0.088600636 0.30699939 8
45.545731 0.14606941 0.29973876 63
45.752609 0.018437266 0.29238051 59
-2.8429844 0.30103341 0.28540823 64.479164
12.16058 0.38426057 0.37518317 18
12.448127 0.39975905 0.25241941 1
12.953053 0.37106302 0.23972747 1
13.106359 0.34984186 0.23883048 1
13.359261 0.34819916 0.28382039 14.8125
13.412444 0.34208882 0.31991598 25.5
14.372719 0.23906124 0.22179562 3
14.590359 0.26102567 0.29813591 18
14.642936 0.2927244 0.26798955 13.909091
14.820456 0.28925908 0.23507047 1
15.373888 0.23308432 0.21057084 1
15.723552 0.21762212 0.22043161 1
15.875254 0.23268192 0.25132877 32.599998
27.384663 0.28372055 0.32684854 23.200001
45.577972 0.28334725 0.30048394 19
-2.832226 0.50119305 0.27938449 68.63636
-2.7957757 0.50458461 0.38184276 71
12.140115 0.47987607 0.2934655 15.210526
12.219974 0.44941738 0.2383222 22.555555
12.504873 0.41294712 0.25986898 1
13.373795 0.41359279 0.26711148 19
27.382675 0.45302364 0.34407604 43.666668
27.406479 0.55903494 0.34380835 45
29.163404 0.53461403 0.30929175 3.6666667
29.233097 0.53864396 0.28925341 6.4000001
64.060616 0.55707741 0.28447914 63
-2.8308446 0.68823045 0.27442744 62.967743
-2.7917502 0.71571004 0.31946784 74.933334
27.397671 0.6610899 0.3454206 48
27.40847 0.66262519 0.34478095 48
29.114063 0.69553435 0.25304297 21.23077
29.213507 0.67675102 0.26830962 12.857142
64.079842 0.76828575 0.28714395 63
-2.8383715 0.89909172 0.29179162 64.954544
27.34812 0.96256357 0.28467956 10.533334
27.448294 0.95544195 0.2931838 14
-2.8353984 1.101066 0.28596866 62.363636
-2.7962589 1.1435758 0.31531352 59
12.112192 1.12072 0.2781983 3.375
43.338402 1.1978076 0.37392384 8
-2.8241024 1.2893717 0.28101018 59.551723
-2.79105 1.31666 0.31955987 62.727272
12.12326 1.3298453 0.2745674 5.75
27.457846 1.3574247 0.36675155 12.666667
43.085472 1.2964648 0.38210803 11
-2.819963 1.4837873 0.2601845 55.777779
-2.7857084 1.5164741 0.29598266 62.36842
7.5751953 1.5989972 0.28720891 18
8.5852795 1.574456 0.29476532 49
8.6583767 1.5759164 0.28948754 27.4
12.152884 1.4777863 0.26754022 7.7142859
27.452335 1.5044752 0.36916271 18.76923
43.115318 1.4649589 0.38313192 7.5
-2.8131685 1.6412967 0.27344739 53
-2.7648597 1.658707 0.26266214 48.25
-2.4556105 1.7398926 0.30919299 56
5.5758667 1.7672936 0.28158349 35.666668
5.6180353 1.7656493 0.30983931 41
6.5720091 1.7240276 0.27018818 5
6.6220455 1.730301 0.28383744 39.18182
7.5736823 1.6851909 0.30728647 3.4285715
7.6348414 1.678467 0.31772789 39.48148
8.5768585 1.6444055 0.29328912 17.75
8.6629362 1.6748343 0.31866577 28.741936
27.460497 1.702551 0.36622021 23.272728
-2.423701 1.8926048 0.31057775 73.181816
-2.3893716 1.9832448 0.32602301 59.333332
1.5350735 1.9725115 0.2907134 34
1.6058922 1.9959533 0.20591158 74
1.9336853 1.9876164 0.31338787 1
2.5547287 1.9203805 0.33735737 50.166668
2.6064396 1.9516001 0.29431313 31
3.5661931 1.8831786 0.29482603 30.200001
4.5798039 1.838991 0.32407239 33
4.6060419 1.8450198 0.29934692 62.5
5.6261368 1.8252714 0.30170015 16.75
8.6537666 1.9019153 0.34371889 1.9
12.157053 1.8796005 0.31103453 8.590909
12.216012 1.8859385 0.29060313 12.285714
27.472572 1.899724 0.36113107 22.166666
46.32954 1.9915193 0.25347376 67
46.414902 1.899228 0.24979663 34
46.613197 1.8191394 0.24295026 23
-2.4361625 2.1010082 0.30388975 78.63636
-2.3680425 2.1389549 0.31085831 62.307693
-0.48589531 2.1175463 0.31629357 31.555555
1.584438 2.0195243 0.32160923 23
1.6232939 2.0326581 0.20703971 5
8.5934753 2.1120448 0.32425299 2
8.6443644 2.1042669 0.34409964 1.8235294
27.464451 2.0999908 0.36271125 37.285713
46.377403 2.0948792 0.25337142 34
47.331501 2.1736915 0.22485596 78
47.945324 2.1761875 0.29183131 54.5
48.090889 2.1061623 0.22649473 15
48.314484 2.1777401 0.28453362 8.5
48.633629 2.1420903 0.2654891 14.25
49.785126 2.1508605 0.23743661 76.666664
49.833923 2.1351676 0.25763261 66.5
50.438828 2.0820756 0.23511964 10
50.764168 2.0680528 0.21197766 11.5
51.012405 2.0732403 0.21896809 11
51.475143 2.0569689 0.20400724 12
51.839142 2.0530324 0.30315572 54
-2.4061546 2.2230475 0.30198395 100
-2.2765787 2.2447867 0.31646988 61
-0.60544205 2.3036933 0.29747024 3.5
-0.52373725 2.3101795 0.31776139 13.785714
8.5727463 2.3223572 0.36226693 2.4285715
8.644021 2.3176572 0.32809889 1.3157895
27.378649 2.223423 0.25532356 18.5
27.464062 2.2575231 0.31902921 19.954546
44.467052 2.367264 0.29632077 14.666667
44.756958 2.3752873 0.28115055 19
44.869778 2.3716385 0.34711626 14
45.122047 2.3790596 0.30216223 13.8
45.314613 2.332185 0.2998991 20.5
45.516163 2.3458016 0.33561158 8
45.692078 2.3359032 0.3063716 9
45.951233 2.3175519 0.29521307 10.6
46.115856 2.2994742 0.27260977 23.4
47.318291 2.2986958 0.27020076 73
47.903389 2.2437243 0.32209611 38.25
49.774048 2.2452476 0.25098759 100
49.802914 2.2627721 0.25415313 81
-0.55536014 2.4799526 0.30858698 3.4444444
8.5853758 2.4722075 0.36501828 2.25
8.6614714 2.4967225 0.34451249 1.3333334
12.159547 2.4936292 0.30031639 7.25
27.492809 2.4932554 0.36235866 25.6
28.37112 2.5647032 0.20762503 9
37.389275 2.5672796 0.25824296 21
38.148121 2.4941447 0.23904508 22
39.234062 2.437278 0.21138227 23
41.066185 2.583123 0.36367869 20
41.327549 2.5433838 0.29471999 20.333334
41.475754 2.5663357 0.34000486 12.5
41.741302 2.5642653 0.36042276 9.5
41.969471 2.5676475 0.37574968 14
42.036484 2.5153418 0.3646268 10
44.387184 2.4780223 0.32320398 49
44.430096 2.4983463 0.30113578 36.347828
44.722492 2.4176896 0.34579232 12.333333
44.857788 2.4069471 0.32713073 8
45.078262 2.4055352 0.38715208 19
45.245113 2.4017756 0.27610463 11
47.297485 2.4298551 0.2856814 67.5
8.5807695 2.6810424 0.35340634 2.6666667
8.6723099 2.6997132 0.33172044 1.5882353
12.169332 2.7844687 0.30105582 1
12.206778 2.7846832 0.30481243 1
27.513227 2.69964 0.36968097 25
34.019005 2.7780447 0.34387112 16
34.849525 2.7331357 0.32275301 17
36.070751 2.7136197 0.29150486 38
36.490829 2.6244833 0.28107679 19
37.319798 2.7690914 0.3748554 14
37.566975 2.6968169 0.39203453 15
37.775604 2.7199681 0.38003933 15.5
38.349686 2.6524014 0.37301731 16
38.55442 2.6750777 0.36055124 16.5
39.184277 2.6068606 0.35275608 18
39.338078 2.6509018 0.3671039 12.666667
39.448032 2.6513875 0.35647017 19
39.958263 2.6413345 0.3909671 10
40.032948 2.6485219 0.36919558 12
41.053665 2.6646085 0.3380169 27.1
41.239586 2.6254697 0.39717722 16
44.394451 2.6945727 0.39213523 47
44.426678 2.6890676 0.30283368 33.045456
-0.48173007 2.9157526 0.33620739 1
8.5697908 2.8264542 0.3218286 9
8.7270708 2.8892076 0.33810714 27.555555
12.223461 2.8682258 0.30357796 5.5
27.523813 2.898948 0.37880525 25.75
28.510412 2.9394233 0.31022462 9.666667
31.926146 2.9169841 0.39694428 13
32.443882 2.8586214 0.38392138 29
33.528389 2.9923582 0.30744371 4.5
33.699402 2.9708989 0.3034007 12.666667
33.920639 2.9832511 0.2713322 8
34.130863 2.9723797 0.26175886 10.4
34.29974 2.9630964 0.24477084 7.1666665
34.49025 2.9519939 0.24860358 9.3999996
34.689831 2.9424641 0.23977259 5.5
34.837463 2.9241045 0.22449183 5.6666665
44.39719 2.8919806 0.3945699 55
44.437962 2.859447 0.33840999 39.42857
-0.49848014 3.1269896 0.27632356 1
8.705039 3.0737991 0.31175104 33.705883
12.24599 3.1004446 0.29949203 14.066667
27.535263 3.0902989 0.3779183 24.571428
28.369461 3.1295216 0.27769768 37
28.48736 3.0978177 0.3230584 37.214287
28.684958 3.1025012 0.33610314 32.799999
31.344055 3.1480091 0.31804988 10.555555
31.502235 3.1188827 0.30181202 7.6666665
31.708115 3.1094635 0.32628435 10.9
31.902197 3.1022108 0.3034687 11.25
32.105911 3.0894461 0.31569237 8.4444447
32.317009 3.0730467 0.31746465 15.384615
32.416199 3.041018 0.26326025 6
33.502979 3.0942707 0.29037651 5
33.667027 3.0067859 0.26331025 5.5
44.428379 3.0175507 0.39527047 55
-0.44622126 3.2477264 0.27265647 1
-0.38079977 3.2999454 0.27626801 1
8.6679249 3.2997222 0.31601506 2.4814816
12.212643 3.3420753 0.30749568 5.1999998
27.550983 3.3030312 0.37760884 42.799999
28.362841 3.2481394 0.35032719 14
31.325447 3.3021836 0.31017709 56.235294
33.484901 3.2921014 0.29234833 6.6923075
8.5762672 3.524859 0.33116016 4.75
8.6727819 3.4882135 0.30346429 1.9166666
12.198506 3.5771914 0.29537594 3
12.241096 3.5192637 0.30407399 3.3846154
27.507812 3.5574875 0.33295247 18.136364
27.629461 3.5245826 0.31568921 5.3333335
29.544827 3.5909643 0.24822658 1
29.716784 3.5837119 0.26659352 3.75
29.906799 3.5669956 0.29559118 8.5
30.098581 3.5684433 0.26915488 4
30.280996 3.5664864 0.33702198 4.1428571
30.502394 3.5586123 0.33315673 5
30.705862 3.5467076 0.3304393 4.8000002
30.898165 3.5388803 0.32642341 4.75
31.103617 3.5324996 0.3282457 4.8888888
31.321886 3.4941087 0.30194101 42
33.122173 3.4326503 0.34219161 4
33.310501 3.4565492 0.31483573 4.5
33.410652 3.4541204 0.29266164 5
-0.42602572 3.6421106 0.23948495 13.333333
-0.36625686 3.6652577 0.24443744 50
8.5981512 3.6527362 0.31749564 4
8.7082272 3.685219 0.2933771 26.953489
12.172036 3.6238179 0.29057378 4
12.253587 3.6837177 0.29486495 3.5
25.145504 3.7953453 0.29088435 50.799999
25.305637 3.7918141 0.29825026 45.666668
25.498333 3.7888172 0.32026157 35.032257
25.705503 3.7814736 0.28879195 38.648647
25.903025 3.7726448 0.28129074 39.275002
26.091497 3.7627404 0.29068515 37.894737
26.295994 3.7502644 0.2860747 32
26.498976 3.7395446 0.27419263 33.40625
26.705853 3.7295167 0.31913567 23.379311
26.896322 3.7190173 0.31460518 23.965517
27.101372 3.7096548 0.31895903 27.129032
27.293198 3.7004421 0.33131135 29.235294
27.495335 3.6811085 0.32489583 26.74074
27.705774 3.6844618 0.32118249 12.571428
27.902699 3.6910644 0.27384889 1.875
28.085957 3.682961 0.2619344 3.3
28.287703 3.6698859 0.24669668 2.7142856
28.484758 3.6627772 0.25606388 4
28.653568 3.6349564 0.29722926 5.5
28.928883 3.6546888 0.26963735 7
29.082504 3.6750393 0.29566941 13.75
29.328098 3.6080027 0.25888792 2.5
29.457495 3.6076958 0.25928965 4.5
8.7485666 3.8807247 0.27906314 39.78125
12.27037 3.8911719 0.30069947 4.3000002
21.704971 3.9969034 0.30397436 58.636364
21.923027 3.993669 0.31916475 60.463413
22.10388 3.9860082 0.31442919 56.202702
22.300549 3.9753013 0.31335518 55.329269
22.491695 3.9623675 0.30783758 53.507042
22.696566 3.9506698 0.31155542 54.25
22.901962 3.9368656 0.31002498 55.435482
23.100681 3.9265521 0.30333742 55.983051
23.296621 3.9153447 0.30471632 50.909092
23.496523 3.9054136 0.29623055 51.477612
23.70047 3.8938234 0.28884751 50.333332
23.901241 3.8844066 0.28377753 51.390625
24.09952 3.8733776 0.281957 51.259258
24.301657 3.8606951 0.28191841 51.132076
24.498325 3.8495393 0.28056943 47.660713
24.699715 3.8377929 0.28469783 45.19355
24.903284 3.8250797 0.28985742 46.125
25.097233 3.8167548 0.28423554 43.162792
25.293316 3.8125865 0.2624011 43.696968
25.491465 3.8101017 0.23376824 49.642857
25.652384 3.8041735 0.21938431 52.166668
8.7149439 4.1258631 0.27699402 1.7692307
12.252922 4.1576138 0.29401067 3.3333333
17.915028 4.197073 0.25807089 91.400002
18.12381 4.1935968 0.25386932 72.833336
18.30546 4.1870766 0.28194621 66.090912
18.50226 4.179738 0.27816686 59.313251
18.700003 4.1692519 0.31021819 55.68182
18.901958 4.1569576 0.31092641 55.395348
19.102274 4.1489196 0.29747981 54.65263
19.304169 4.1369033 0.29344165 54.408165
19.494804 4.1257882 0.30365473 56.419998
19.698706 4.1152482 0.3113398 58.92857
19.896271 4.1056418 0.32499129 58.888889
20.101652 4.0943718 0.31563124 58.451614
20.298826 4.0839801 0.33138949 55.947369
20.501369 4.0723805 0.33270055 56.08989
20.699011 4.0621238 0.31979594 55.6875
20.893284 4.0525599 0.31679752 55.644444
21.096804 4.0428038 0.3119314 52.462364
21.299124 4.0324678 0.31549698 57.214287
21.498051 4.0222788 0.31010643 58.277107
21.699848 4.0119481 0.31819853 55.202702
21.878668 4.0065222 0.30136639 53.474998
22.052332 4.0026073 0.28965348 61.799999
22.206268 4.0009437 0.28402895 56
8.6944151 4.3104739 0.27457452 1.9
12.109037 4.3597398 0.3140198 6.5
12.307663 4.3350101 0.28339523 23.121952
14.567339 4.3969665 0.2731382 73.800003
14.721581 4.3933144 0.29318938 70.827583
14.911181 4.3874369 0.27267596 68.736839
15.10451 4.3806763 0.27524939 64.21212
15.300265 4.3688841 0.26878041 62.97826
15.505164 4.3568811 0.28714514 60.153061
15.701351 4.3422847 0.27993315 62.349998
15.897491 4.3327422 0.2745463 60.970875
16.100153 4.3189001 0.29019323 60.14151
16.301395 4.3058553 0.29546231 58.854546
16.501152 4.2947769 0.29060712 58.633026
16.703045 4.2831607 0.29178777 60.532711
16.896057 4.2716374 0.30442357 56.742268
17.101984 4.2602792 0.29250789 59.059406
17.299685 4.247066 0.28706697 59.069305
17.499741 4.236887 0.28488284 60.910892
17.700775 4.2252989 0.27926055 61.505154
17.892883 4.2160954 0.27248269 60.965908
18.080791 4.2105179 0.28052273 54.188679
18.281336 4.2071867 0.3063772 38.173912
18.490488 4.2028098 0.34891036 15.4
8.7452707 4.523541 0.30348927 20.548388
11.575481 4.5806503 0.28410724 29.833334
11.698809 4.5692048 0.29190186 71.397263
11.90034 4.5640945 0.29253212 73.178574
12.09741 4.5502157 0.28819525 50.879311
12.300079 4.5280514 0.29871312 56.412498
12.506783 4.5242658 0.28944424 58.333332
12.700169 4.5160785 0.28444514 63.703705
12.897689 4.5041304 0.30248353 61.028168
13.097893 4.4935207 0.30372557 60.121952
13.302889 4.4813399 0.28288305 62.378048
13.503999 4.4710503 0.29188517 59.804596
13.700257 4.459734 0.29572716 59.978947
13.900293 4.4505992 0.29137698 62.370785
14.101924 4.4386806 0.29725102 62.193878
14.301563 4.4280534 0.2913464 62.408604
14.493543 4.4171305 0.28889665 59.056179
14.685453 4.4077511 0.29514965 59.916668
14.876278 4.4064541 0.3107959 54.555557
15.059933 4.4050636 0.30824608 54.75
8.7755079 4.6511178 0.30441034 71.166664
8.8474216 4.679647 0.30196491 55.52
11.578929 4.7083364 0.2695249 21.333334
11.615091 4.6870422 0.26372609 30.857143
8.7415829 4.9598064 0.30846798 4
8.8123751 4.9568753 0.2362262 1
11.5883 4.9051805 0.24408604 19.666666
11.625955 4.8907151 0.32108873 36
-0.28707039 5.1591692 0.35133001 34.266666
8.7782316 5.1313057 0.24826024 3.6666667
8.8063145 5.0393786 0.30928537 1.5
11.592724 5.0360298 0.22723293 20
11.629195 5.1162944 0.32536957 28.111111
-0.21623611 5.2123404 0.31020176 7
1.7181993 5.2891517 0.34034047 46
8.7960281 5.2687659 0.20938361 1
8.8285704 5.2285314 0.21495247 1
11.649048 5.2856894 0.36782029 31.666666
11.650262 5.493494 0.36265865 25.583334
8.768837 5.6823449 0.39196178 5.5
11.660433 5.6844325 0.34279332 25.9
8.7872982 5.8882837 0.34607878 3.5999999
8.8724155 5.9201169 0.33243397 27.5
11.671174 5.8851504 0.32370883 25.727272
8.932416 6.0017548 0.30066085 9
11.680391 6.088954 0.30488744 25.4
11.692639 6.3025413 0.28466937 26.6
1.7757677 6.4078088 0.3977747 51.666668
11.699113 6.4980116 0.26823696 24
-0.22369984 6.6837263 0.36360097 33
-0.16889954 6.7294579 0.34367007 35.599998
8.830143 6.6388378 0.27111185 5
11.708544 6.6978774 0.24801734 24.444445
-0.12617624 6.823523 0.31579316 15.5
8.7578468 6.9299421 0.22926772 5.5
11.724656 6.8892541 0.22562751 29.571428
8.9117641 7.1219044 0.28820363 23.695652
11.712162 7.0621357 0.22271918 18.75
8.9729528 7.2961607 0.31102085 31.545454
11.706322 7.2764616 0.21547025 15
1.1779716 7.5965314 0.26355594 35
1.3033873 7.5923042 0.26254612 34.57143
1.4950237 7.5782251 0.26150155 37.57143
1.6942331 7.5620451 0.2599608 81.625
1.8205853 7.5125198 0.26343405 90
8.9788656 7.4965529 0.29774186 30.666666
11.713223 7.414495 0.20189917 15
-0.098536082 7.6752191 0.2334481 36.214287
0.098842748 7.6889119 0.23547138 27.466667
0.30302513 7.6795306 0.23578762 27.333334
0.50533646 7.6641092 0.24142559 29.866667
0.70184416 7.6470728 0.24278119 30.857143
0.90267122 7.6373053 0.2438824 33.9375
1.0974751 7.6243544 0.24357803 33.384617
1.2902126 7.6229548 0.23220311 30
8.9826565 7.6908674 0.30244127 29.299999
9.0042658 7.7287731 0.32081532 33.333332
8.9855423 7.8890595 0.31311637 28.6
9.0102043 7.8777575 0.30087337 36.166668
8.9903393 8.0853786 0.32174355 23.200001
9.0181465 8.0837612 0.32409933 24.285715
8.9950361 8.2884684 0.35090542 12
9.0231075 8.2985477 0.31495607 26.5
11.805616 8.2946844 0.39970565 8
9.0307531 8.5010004 0.29852501 25.5
11.798234 8.477397 0.38543737 2
11.819836 8.4750328 0.38709253 9
9.0402327 8.7166204 0.30510956 21.615385
11.830349 8.6976519 0.37176001 9.5
9.0533934 8.9047117 0.28880233 19.875
11.792677 8.8963728 0.39275467 3
11.827821 8.888237 0.35712126 6.5
9.0619125 9.1029472 0.29620373 20.125
11.836347 9.0799675 0.35710844 7
9.0699396 9.2518578 0.29872409 13.75
11.841986 9.3167162 0.33701631 5.75
11.844206 9.506259 0.33461937 4
8.9150715 9.7435837 0.20728743 24
11.856558 9.7009745 0.32158241 4
8.9177485 9.864172 0.25151351 18.666666
11.86905 9.8923426 0.29739469 4
8.9279242 10.120521 0.24196826 65.375
9.0599899 10.128392 0.27201384 42.076923
11.338952 10.128995 0.23543966 4.6666665
11.875502 10.148951 0.29158276 5
9.108983 10.292494 0.26707467 12.25
11.409713 10.245267 0.22654539 5
11.906044 10.262184 0.26302725 5
9.1442146 10.461973 0.24198037 18
11.444427 10.415553 0.21364975 5
11.903981 10.491523 0.26109353 5
9.1355419 10.656769 0.25406379 12
11.90093 10.697459 0.23952422 10.75
9.1432562 10.899495 0.24609323 10
11.375073 10.846841 0.2217083 5
11.442345 10.962303 0.21247914 21
11.766904 10.980423 0.2063536 36
11.873092 10.905411 0.21301405 12
9.1605282 11.02099 0.21226209 12.5
11.546509 11.02531 0.2064762 48.666668
11.669772 11.037781 0.20374829 51
11.925429 11.059339 0.2298238 6
11.909102 11.27108 0.23928881 6
9.151227 11.407145 0.26329595 6
11.922466 11.581309 0.2192089 6
9.1694927 11.921295 0.22972983 6
9.2917929 15.492159 0.39836037 47.5
9.3709898 15.938534 0.38089323 9
9.3889627 16.243504 0.36883253 9
9.4209785 16.457399 0.36041224 9
12.151291 16.764896 0.39618158 79
12.27449 16.772854 0.3943671 44
12.062443 16.800468 0.39593136 88
9.3575611 17.432526 0.32151556 51
9.4362879 17.475441 0.36780763 54.333332
11.769378 17.570772 0.38109493 71
11.90702 17.556772 0.37824053 89.14286
12.08965 17.550184 0.38187584 78.5
9.5357666 17.687634 0.34032041 90.199997
9.7162676 17.671999 0.34781447 84.666664
9.9070654 17.676254 0.34720656 72.5
10.930615 17.7952 0.3703928 10
11.11835 17.797234 0.36867681 10
11.328054 17.778509 0.37339151 12.5
11.501995 17.77585 0.37157267 17.5
11.689716 17.721836 0.37663248 17.75
10.100527 17.850159 0.34689912 10
10.282196 17.841898 0.33968124 10
10.476558 17.833015 0.33927122 10
10.694349 17.823597 0.34217834 10
10.903189 17.822435 0.36127931 10
11.119705 17.810041 0.34967053 10
11.267816 17.819319 0.36219811 10
11.504275 17.807846 0.38759813 10
11.63483 17.804346 0.3855226 10
12.276136 -12.891088 0.52572763 1
12.735312 -12.90143 0.52097595 2
12.898726 -12.818821 0.52258319 1
8.3595238 -12.64975 0.56064045 78
8.4885101 -12.650373 0.56012172 93.599998
8.702549 -12.656469 0.55901355 119.4
8.8943119 -12.67049 0.55762804 107.75
9.0858374 -12.690171 0.55596542 93.199997
9.299387 -12.701784 0.55445892 91
9.5109377 -12.714837 0.55284095 59.599998
9.705163 -12.730341 0.55116111 34
9.8971043 -12.745507 0.54945266 13.6
10.024851 -12.72349 0.54955918 42
12.787796 -12.74416 0.5265969 1
12.828691 -12.725479 0.52692008 1
13.071054 -12.772614 0.52263898 1
7.8998575 -12.416039 0.57139754 95
8.0907803 -12.416054 0.57079196 91.800003
8.2769089 -12.434754 0.56941676 96.5
10.125858 -12.557119 0.555511 89.75
10.295876 -12.570101 0.55391574 95.75
10.486555 -12.566483 0.55279469 80.599998
13.513315 -12.537295 0.5271039 1
7.7765288 -12.123392 0.58326733 63.5
7.833818 -12.150793 0.58202797 38
10.580424 -12.157939 0.56828874 12
10.596194 -11.843967 0.58057559 14
10.62079 -11.637401 0.5885576 1
7.949038 -10.267533 0.40779811 18.25
7.7693462 -10.120413 0.41299924 45.75
7.8737826 -10.159647 0.41382253 40.625
10.70197 -10.030486 0.40699965 3
7.7735233 -9.9064827 0.42404866 7
10.71886 -9.8597488 0.41805515 3
32.755219 -9.8171549 0.4372133 7
35.282162 -9.9231758 0.512398 2
7.7872415 -9.7844524 0.43165255 3
10.727837 -9.6680202 0.43065262 3
32.794186 -9.7421417 0.43784869 15
32.822113 -9.6667433 0.43871295 22
35.303951 -9.7039766 0.51607388 2
10.735283 -9.5185366 0.44680128 2
32.859928 -9.5541725 0.44007379 14.5
7.9983015 -9.2039156 0.47013414 2
10.739789 -9.2769203 0.45643544 2
8.0239639 -9.0766373 0.48559603 10.666667
10.756533 -9.1337605 0.46560374 2
8.031476 -8.9340343 0.46940872 11.75
10.765505 -8.9008932 0.48087335 2
17.132265 -8.8881702 0.40202385 3.75
8.0426788 -8.7239866 0.49077606 11.5
10.771681 -8.6106787 0.49997759 1
17.176313 -8.7354317 0.40904593 3
8.0549059 -8.5110912 0.50287759 11
10.78112 -8.4755564 0.49394315 9
10.873855 -8.5245562 0.48356938 4.25
8.065938 -8.2963657 0.52389413 9.7142859
8.0761509 -8.109952 0.5290029 9.6000004
10.79156 -8.0073633 0.53941387 1
8.0917635 -7.8949232 0.53550065 9.4285717
10.828919 -7.9773121 0.50275075 1.75
8.1060743 -7.6839194 0.55796009 9.833333
10.849384 -7.7076507 0.5578146 4.3333335
8.1187677 -7.4897761 0.57036012 10.5
8.131834 -7.3013558 0.5708496 13.5
10.867838 -7.3404574 0.56388164 9.25
8.1409941 -7.1161709 0.56847799 12
24.420053 -7.0121751 0.45731771 1
8.152276 -6.8615355 0.45991719 10
21.093496 -6.8277884 0.42425287 1
21.575788 -6.8083658 0.46447402 1
22.158272 -6.8060045 0.47804064 27.75
22.315622 -6.8110752 0.48030943 30.444445
22.525562 -6.8303261 0.48690528 41.619049
22.678308 -6.8433776 0.53543806 69.529411
22.89847 -6.8598418 0.5745734 36.099998
23.097433 -6.8732867 0.56943977 27.636364
23.323624 -6.8849416 0.54718471 30.928572
23.517298 -6.8743486 0.51144844 66.045456
23.700647 -6.8702517 0.51696599 52.75
23.82513 -6.8432398 0.52071416 1
24.349487 -6.9746876 0.46231043 1
24.440531 -6.9864469 0.45937243 1
24.777349 -6.9274378 0.55746621 1
8.1624928 -6.6917253 0.47730923 18
21.371891 -6.7589502 0.43567312 1
21.50178 -6.7537298 0.44721371 1
21.706114 -6.7688193 0.46781111 38.333332
21.898777 -6.7815804 0.47487307 35.900002
22.059183 -6.7925081 0.47733787 28.142857
22.217474 -6.7988982 0.47977847 28
23.869778 -6.691083 0.56173599 1
8.1747999 -6.4754052 0.45823985 25.200001
23.909349 -6.5015221 0.5730136 3
8.1866236 -6.3001561 0.45105547 26.5
10.925194 -6.2251291 0.50626504 14.2
8.1943054 -6.1362686 0.44958818 18
8.2027197 -6.0719299 0.44955736 30.4
10.963273 -6.1896324 0.59537369 5.3333335
8.1924324 -5.9189196 0.48931146 4
8.2092943 -5.9075456 0.44611305 30.444445
8.2235966 -5.6870713 0.46229973 35.666668
8.2367878 -5.4909306 0.49043518 36.555557
8.2461452 -5.3030634 0.49802038 37
27.036047 -5.2385321 0.58601481 2
8.2624617 -5.0934968 0.51747078 40.666668
10.980235 -5.110765 0.49708292 8.333333
11.038634 -5.0924859 0.50840217 5.1666665
11.299777 -5.0520682 0.48009887 1.7142857
27.066711 -5.1227713 0.54895359 4.1428571
8.132597 -4.8103695 0.53369677 53.200001
8.2586927 -4.8658032 0.53573352 45.333332
11.328939 -4.9012628 0.50038397 1.4666667
17.396805 -4.9265738 0.42678374 10
17.406288 -4.8620729 0.42941043 11
8.0865908 -4.7062907 0.53943366 21.666666
11.35375 -4.681932 0.51069772 1.6
35.010353 -4.6504593 0.46497267 8
8.1062832 -4.4863887 0.54769635 21.09091
11.372443 -4.5142341 0.51187295 2.0714285
11.403612 -4.4723768 0.50652194 3.5
17.466087 -4.4579625 0.44550508 3
8.1212072 -4.3124037 0.54898524 24.076923
11.412861 -4.3620238 0.51308924 2
17.42807 -4.3840675 0.45042226 9
8.1321697 -4.1936269 0.54382664 26
8.342267 -4.0122805 0.56901902 33
11.121295 -4.0099893 0.55742872 8
11.329111 -4.1760311 0.52472103 1.25
11.426639 -4.0880141 0.52627075 2.9375
8.3321733 -3.9609351 0.57190716 7.25
11.071516 -3.9628515 0.56033957 11.625
11.457206 -3.9265406 0.53624231 2
17.426208 -3.9952819 0.41364777 4
40.585079 -3.6084471 0.40497458 76
40.605606 -3.6064065 0.46899065 42.5
11.183795 -3.4543164 0.54050064 11
11.200686 -3.4182222 0.46409202 18
24.056494 -3.4231222 0.43128923 2
36.719055 -3.4059563 0.45904088 57
38.292034 -3.4432602 0.46104416 89.571426
40.584969 -3.5460341 0.40610671 92
40.617958 -3.5580204 0.44339132 89.333336
41.086456 -3.5178714 0.45091838 25
8.376296 -3.2374008 0.55773211 80.666664
11.195587 -3.3314621 0.55424505 18
11.20799 -3.2799716 0.497013 17.4375
24.061821 -3.3093023 0.43609631 2
30.983828 -3.2505372 0.43643236 27
33.507378 -3.2376194 0.5117296 46.058823
35.097809 -3.2851775 0.50576967 74.684212
36.698513 -3.3489952 0.49103937 77.947365
8.3901777 -3.1430681 0.5632109 95.333336
8.4021091 -3.0739231 0.56727284 95.833336
11.226898 -3.0987616 0.44667941 17.391304
24.059288 -3.0896807 0.4788729 1.6538461
27.509054 -3.0547113 0.52526486 39
29.184938 -3.0371349 0.48162785 17
29.230804 -3.0355771 0.46723133 38.142857
30.970676 -3.1332879 0.51579785 55.6875
31.007721 -3.0377395 0.45001313 36.333332
31.358875 -3.0711985 0.48930344 7
31.714787 -3.0987353 0.50974321 5.5
31.885359 -3.0908604 0.51373219 14
33.507214 -3.1713393 0.50588596 51
8.4097099 -2.8984127 0.57574344 95.444443
11.135865 -2.8396616 0.45637766 21.4
11.239455 -2.9677401 0.44054693 17.666666
24.080605 -2.9133191 0.47765556 1.6538461
25.763006 -2.8433774 0.52412069 33
27.274391 -2.9381416 0.58232027 1
27.502987 -2.9217951 0.53487927 32.259258
27.934986 -2.9503391 0.5977478 1
28.036411 -2.9524045 0.59133661 1
28.235785 -2.9731989 0.57827973 1
28.435364 -2.9926128 0.56524312 1
29.24287 -2.9733357 0.48317832 31.4
8.4216747 -2.7369707 0.58356172 92.666664
11.144914 -2.691644 0.48292077 27.46875
20.103794 -2.6331015 0.49237442 2
20.524046 -2.615222 0.4538312 2
20.727493 -2.6076488 0.52886951 1.25
20.877449 -2.6099789 0.46641174 1.3333334
21.058619 -2.6204579 0.46767685 5.4285712
21.471214 -2.6047788 0.45315611 3
21.716125 -2.6065068 0.4752776 2
21.89633 -2.6109157 0.51830554 1.4285715
23.996092 -2.7309012 0.52110195 19.75
24.039083 -2.7173426 0.47665131 14.764706
24.487844 -2.7483647 0.56751466 1
25.770319 -2.7767766 0.50659186 14
25.856544 -2.7755964 0.49383667 28.333334
8.3971977 -2.5084891 0.40428245 42.5
8.4182882 -2.4643745 0.40745449 30.75
11.158525 -2.5002639 0.50604737 33.974998
16.542595 -2.4352965 0.54688036 1
16.737715 -2.5443096 0.50548214 1.2
16.875601 -2.4123664 0.51881427 2
17.008507 -2.416631 0.50700682 2
17.545219 -2.489454 0.50671464 1.3529412
17.651949 -2.4483221 0.50762433 1.3333334
18.750843 -2.4746084 0.49136752 10.090909
18.824821 -2.4891086 0.55760407 1
19.502136 -2.5493994 0.55118102 1
19.924704 -2.5259321 0.51059133 10.833333
20.282564 -2.5751157 0.47777042 2
20.544748 -2.5952895 0.48646712 1.5
20.680553 -2.591213 0.49845529 1.4
21.129568 -2.5679958 0.49632484 20.857143
21.306206 -2.5765333 0.48586583 1.75
21.496529 -2.586854 0.4607437 1.75
21.698587 -2.5974271 0.49195361 1.3333334
8.4234991 -2.2811811 0.46560171 53.857143
11.17727 -2.3015764 0.52912575 41.866665
12.91162 -2.2095258 0.49392426 5
13.472692 -2.2286165 0.46024442 5
13.747248 -2.2018197 0.55192471 3
13.857004 -2.2349467 0.43720159 9
14.042198 -2.2082448 0.54069161 26
15.169893 -2.2469263 0.49470061 34
15.224918 -2.2508526 0.50009483 16.411764
16.379181 -2.3058825 0.52766484 21.416666
16.421021 -2.3344097 0.51637053 7
16.889275 -2.3966572 0.51824713 2
17.56114 -2.3814664 0.47794199 19.857143
17.604589 -2.3830335 0.52842337 1
38.377655 -2.2433348 0.42151773 50
38.429192 -2.321553 0.41872692 7
8.386672 -2.1219449 0.54892898 77
8.43715 -2.0794783 0.48872155 64.620689
11.180879 -2.1233621 0.50421143 43.16
11.23693 -2.0516756 0.50536084 30.933332
11.50095 -2.0305879 0.47948587 1.5555556
11.715605 -2.0368865 0.45671251 1.4285715
11.899873 -2.0418687 0.53527749 8.1000004
12.103162 -2.0466375 0.47941393 4.8000002
12.329527 -2.075469 0.4888677 2.8461537
12.500594 -2.0921333 0.50620681 3
12.692084 -2.099462 0.50449073 3.2142856
12.927098 -2.1184456 0.52809161 5.2105265
13.105977 -2.121042 0.49797413 2
13.296702 -2.1372442 0.51998961 2.6666667
13.48172 -2.1519961 0.5137831 3.5
13.714626 -2.1707067 0.49287489 4.3333335
13.875292 -2.1725025 0.51531577 10.625
14.056582 -2.1655514 0.52369362 20.9
35.107662 -2.0327871 0.49160361 22
38.385956 -2.1646776 0.4227652 21
7.7606797 -1.8011545 0.49512732 8
7.8987393 -1.8191527 0.55153751 37.5
8.1133528 -1.8277067 0.5685246 20
8.3156223 -1.8652565 0.49545884 17.299999
8.4391289 -1.9168167 0.49436203 70.432434
11.194147 -1.9634776 0.43216109 1
11.300522 -1.9782604 0.54353833 2.8333333
11.508237 -1.9824438 0.51963156 1.875
11.698092 -1.9923424 0.47632682 2.75
11.83953 -1.9925205 0.58793163 10
35.143257 -1.9276092 0.49169585 24.5
3.7177045 -1.6040504 0.48699972 25.5
3.8594306 -1.6040881 0.51301932 23.5
4.3206487 -1.6071807 0.55240762 3.6666667
4.4921312 -1.613987 0.54216707 1.3333334
4.6874948 -1.6241404 0.50229299 2.0999999
4.8692684 -1.6413963 0.53872907 2.5
5.0805664 -1.6512082 0.59226143 2
5.2820978 -1.706938 0.53168011 3.25
5.5032344 -1.6938643 0.51367664 26.333334
5.7647271 -1.7574668 0.51850659 15
5.9124603 -1.7636658 0.50103867 16.666666
6.1154861 -1.7763963 0.47682726 14
6.3047538 -1.7276109 0.48245421 12
6.4903622 -1.700037 0.46086484 8.375
6.6997828 -1.6788089 0.46818295 11.545455
6.8907638 -1.6791366 0.45062813 2.3333333
7.1189661 -1.6999792 0.4666926 3.4285715
7.2938972 -1.6845301 0.50053579 8.7142859
7.4774466 -1.7861631 0.47356367 8
7.644155 -1.7850788 0.48659483 7
7.8472877 -1.768715 0.55396509 56.166668
-2.6132278 -1.4207457 0.58032238 4
-2.4934397 -1.42624 0.59067053 3.5
-1.6096468 -1.4068632 0.56953526 1
-1.5295808 -1.4156505 0.57636642 1
0.37208748 -1.4010229 0.49451375 4
0.54783344 -1.410037 0.49026403 4.6666665
0.70091373 -1.4098767 0.47263095 4.5
1.1466417 -1.4237112 0.53115529 4
1.3231735 -1.4218504 0.53684342 8.5
1.4975117 -1.4242245 0.55993652 13.666667
1.6541541 -1.4400452 0.55417347 13.5
1.8806454 -1.4536268 0.57276589 13.666667
2.0646193 -1.4629214 0.54462498 10
2.3178282 -1.497883 0.53328228 5.5
2.4805772 -1.4972585 0.42326865 8.333333
2.6922891 -1.5254534 0.53003109 15
2.9037335 -1.5290397 0.4578642 10.5
3.0890806 -1.5541859 0.43803877 14.857142
3.2877758 -1.5661973 0.47551355 14.428572
3.5067971 -1.5766046 0.49177682 15.666667
3.7076755 -1.5892118 0.49652234 17.6
3.8779221 -1.5970551 0.51287758 16
4.1311722 -1.585888 0.50463915 20.5
4.2605476 -1.5946515 0.47922283 1.5
5.7199345 -1.5245254 0.50729966 8.1111107
5.8720398 -1.572696 0.52712357 4.5
6.0972862 -1.5665046 0.52275592 5
6.3158932 -1.5699131 0.51313907 5.5555553
6.5146465 -1.568082 0.49010247 4.75
6.682116 -1.5883274 0.46060637 8.4285717
-2.6376736 -1.2400686 0.48726091 51
-2.5458014 -1.2710553 0.47703508 28.583334
-2.2825158 -1.3025892 0.49381772 9.9285717
-2.1559389 -1.2944106 0.49433303 21.5
-1.8915401 -1.3538095 0.54383326 1.5
-1.6968007 -1.3642193 0.54760182 1.5
-1.5618508 -1.3414249 0.59333491 2
-1.0231485 -1.2724051 0.53879535 13
-0.94589263 -1.2891951 0.49032822 33.799999
-0.67485934 -1.3278446 0.5106917 25.25
-0.45583525 -1.3483111 0.54982823 3.6666667
-0.31137076 -1.3623602 0.5580793 3.2
-0.10151243 -1.3819093 0.53222317 1.75
0.12479424 -1.3684778 0.48979852 9.5
0.28641424 -1.3829784 0.4828777 4.5
0.51704168 -1.3905635 0.47095037 5.3333335
16.378572 -1.2565488 0.52611631 10
16.43585 -1.2237478 0.53083575 24.666666
-2.6267543 -1.0920163 0.47357735 55.76923
-2.5418522 -1.099456 0.49147817 41.028572
16.363781 -1.0343367 0.49195328 20
16.444168 -1.1297216 0.5322156 22.142857
-2.6210356 -0.89719379 0.4885456 62.733334
-2.5732613 -0.89569354 0.48144799 69.617645
3.106957 -0.8517763 0.4696776 15.222222
27.336006 -0.84216982 0.53650188 35.833332
27.476555 -0.82035124 0.4899388 3.5
-2.6149492 -0.69296825 0.49852869 74.666664
-2.5643804 -0.69547427 0.4815475 67.325584
2.9175546 -0.73383278 0.44133848 11.142858
3.059329 -0.78499556 0.46470961 13.5
27.300322 -0.74542242 0.49677679 48.625
-2.6091375 -0.49788368 0.5030582 84.111115
-2.5546033 -0.49760306 0.4848015 51.272728
24.102703 -0.41095832 0.42893749 3
24.261873 -0.42479128 0.41310364 2
24.982544 -0.42357093 0.4137252 2
25.054548 -0.45704317 0.4065257 2
26.769743 -0.54800165 0.40786916 2
26.834158 -0.55792999 0.40151513 2
28.596893 -0.410595 0.40058374 3
-2.6108096 -0.31164131 0.50622195 51.666668
-2.5450952 -0.29370582 0.4752408 33.634148
19.566368 -0.32810491 0.47857198 41.549999
19.651577 -0.31512764 0.54986191 32
21.40716 -0.25930375 0.4087553 1
22.383381 -0.28676835 0.40503523 1
23.923559 -0.37937108 0.44676057 2
28.555889 -0.31140155 0.40417004 3
28.648825 -0.23709972 0.45916501 2
-2.8713708 -0.045919638 0.48285705 50.099998
-2.6959684 -0.12389876 0.46615058 12.6
-2.5453467 -0.1541467 0.4713122 30.047619
11.815145 -0.008245606 0.5655809 26
16.700226 -0.005604893 0.40654996 4.5
17.177986 -0.015519559 0.44533497 1
17.321934 -0.037020415 0.43153384 1
17.487659 -0.057961583 0.41565722 1
17.660551 -0.064833015 0.40123343 1
18.161478 -0.06349051 0.40695786 1
19.189655 -0.10462791 0.43390715 2
19.26631 -0.13164642 0.42629668 1
19.412251 -0.15289837 0.41202509 1
19.706661 -0.13949682 0.42381591 4
19.974625 -0.17485167 0.40692222 4
20.274723 -0.16698569 0.42493546 1
-2.8510196 0.098223343 0.47349724 62.596153
11.786292 0.083560571 0.42712384 20.5
11.865077 0.10291645 0.50040561 49.8125
12.022119 0.12524916 0.48146513 42.57143
12.555476 0.1859287 0.5200364 4
13.727914 0.19904423 0.46369523 1
13.907368 0.19219041 0.47670075 1
14.106075 0.19103801 0.49103278 1
14.302095 0.1645671 0.48788109 1
14.517067 0.15320018 0.43806705 1
14.639345 0.11765277 0.43127787 1
14.92901 0.11427663 0.42857277 1
15.105873 0.11628671 0.46466872 1.5
15.291367 0.097164743 0.45469159 1
15.494327 0.086345017 0.45450559 3
15.714053 0.082052812 0.46266511 2.1666667
15.862648 0.068293907 0.45574373 4
16.091995 0.058514535 0.45591965 12
16.311199 0.037255734 0.42794204 1
16.491467 0.014833048 0.41083407 1
17.134958 0.043793954 0.43099484 10.25
27.426912 0.11005896 0.44084877 3
-2.8484423 0.29573801 0.47889024 69.82222
-2.7869945 0.26675019 0.44653541 12
11.974029 0.35683593 0.53392363 34.875
12.102936 0.30898687 0.49473843 13.076923
12.237222 0.33826753 0.43944699 22.888889
12.472886 0.22987735 0.48727566 5
12.71536 0.25659743 0.50136477 4
12.910351 0.25033623 0.50844502 3.5
13.078117 0.21914756 0.499652 2.5
13.270015 0.22250052 0.50699186 2
13.514477 0.23382455 0.50017273 1.5
14.185831 0.20730424 0.49664384 1
14.579494 0.24081355 0.4001255 11
15.923932 0.22756642 0.4049004 1
27.414841 0.31371951 0.44272697 3
-2.842418 0.50355744 0.47582051 64.90625
-2.7976851 0.47400796 0.40750515 24.5
11.975545 0.50805557 0.520383 33.619049
12.059723 0.50348449 0.45276999 22.375
12.216446 0.43312481 0.42445126 19.75
27.417744 0.50328994 0.44336405 10.6
29.171293 0.56059325 0.40559295 2
29.254068 0.54938507 0.42975846 2.3333333
-2.8433177 0.69335496 0.4806309 44.826088
-2.7901049 0.70649403 0.4320811 46.166668
11.973991 0.70424658 0.52047783 32.952381
12.008926 0.6898033 0.48926061 18.588236
27.422548 0.69349289 0.4436892 23
29.162142 0.62622529 0.40450731 2
29.237387 0.65659302 0.46562657 2
-2.8534448 0.89126325 0.47218353 31.354839
11.985938 0.90641856 0.52811611 36.799999
12.009008 0.89202082 0.52245325 26.666666
27.429338 0.90513772 0.44374576 29.666666
-2.8431382 1.0981479 0.48908177 67.39286
-2.7892809 1.1996841 0.41572738 100
11.989902 1.0677209 0.52350593 38.111111
12.012763 1.1160005 0.53088099 19.647058
27.435963 1.1011569 0.44357985 32.400002
-2.8257577 1.2923434 0.50342453 56.142857
-2.7808108 1.3403304 0.42621797 46.875
11.997175 1.2849625 0.51550353 34.5
12.018616 1.3032184 0.52955323 20.375
27.447344 1.3005837 0.44291797 32.666668
-2.8096366 1.481477 0.51365966 50.57143
-2.7817965 1.5037613 0.45467266 46.238094
8.5894146 1.5909967 0.48030001 57
8.6585712 1.5747645 0.50591171 23.428572
12.026489 1.4931163 0.52705175 20.956522
27.455206 1.5010178 0.44229174 36.799999
-2.8054533 1.6295234 0.50141376 83.333336
-2.7511346 1.6437011 0.46508226 24.833334
-2.44946 1.711206 0.47856224 33
-2.3966932 1.7929373 0.4374485 83
5.5756912 1.7629534 0.46571672 25
5.6291876 1.7662033 0.51644635 56.714287
6.5878744 1.740088 0.47025305 56
6.6404986 1.7292759 0.47643223 34.799999
6.8924093 1.7222804 0.4969618 19
7.1044407 1.7014383 0.44410869 14.166667
7.2974257 1.6996472 0.50229251 19
7.5279408 1.6947105 0.51888365 26.5
7.6340218 1.6704569 0.51855248 41.941177
8.5704288 1.6328833 0.48129821 6
8.6551113 1.6600937 0.51446843 29.969696
11.989116 1.7363188 0.51736897 22.799999
12.042314 1.699967 0.52941465 24
27.463839 1.7043387 0.44141448 37
-2.4133551 1.8899407 0.49365872 70.090912
-2.395195 1.9527464 0.43866229 75
1.5346285 1.9624254 0.53585225 17.833334
1.6079555 1.9837337 0.56024158 55
2.5656605 1.9457492 0.46228608 46.142857
2.6141226 1.951037 0.52311224 38.666668
3.5561709 1.8735186 0.52055168 31.111111
3.6066253 1.9074574 0.52191526 54
4.5714388 1.8304888 0.4728004 38
4.6224203 1.8439356 0.54391229 53.400002
5.5935898 1.8244557 0.43025327 63
5.6327863 1.8091322 0.50941116 43
5.8558517 1.8133628 0.47324312 1
8.590106 1.9360729 0.54256099 5.3333335
8.6434183 1.8948212 0.51607758 2.2727273
11.999146 1.9143062 0.51436818 9
12.074868 1.8990016 0.50966829 19.622223
12.20879 1.8748152 0.43712461 2.5
27.482117 1.9291743 0.4353596 23
49.8246 1.9978396 0.49374914 42
51.76783 1.9195465 0.46683431 48
-2.4313507 2.1156292 0.49189478 53.42857
-2.3640943 2.1371074 0.46845061 77.866669
-0.46359047 2.1326816 0.49955007 41.444443
