# .PCD v0.7 - Point Cloud Data file format
VERSION 0.7
FIELDS x y z intensity
SIZE 4 4 4 4
TYPE F F F F
COUNT 1 1 1 1
WIDTH 745
HEIGHT 1
VIEWPOINT 0 0 0 1 0 0 0
POINTS 745
DATA ascii
3.2271273 -6.0269647 0.99287486 1
3.3016274 -5.9678941 0.9978807 1
3.3460364 -6.2061052 1.1937124 2
3.3561757 -6.1765504 1.1967186 2
3.4097364 -6.1478744 1.1978559 2
3.1911199 -5.9890161 1.0003836 1
3.2611511 -5.9442506 1.0035123 1
3.371593 -5.6601467 1.0398052 1
3.5082572 -5.605803 1.0398052 1
3.5473356 -5.5895524 1.0398052 1
2.9516151 -4.8679638 1.1805961 1
3.0024951 -4.8493543 1.1805961 1
2.9291954 -4.7707772 1.1962397 1
3.0832891 -4.7121363 1.1962397 1
3.2495766 -4.6681323 1.1924852 1
6.3013191 -1.8265365 1.1418004 1
6.2593346 -1.7431293 1.152438 1
6.2968545 -1.4336499 1.1614069 1
6.2827697 -1.2966825 1.1691337 1
6.281188 -1.0992657 1.1765602 1.5
6.2900281 -0.90766948 1.1810511 4.4545455
6.3006649 -0.70740509 1.1843506 1.1818181
6.3043857 -0.5093565 1.1874793 1.3636364
6.2725468 -0.30943257 1.1950451 2.909091
6.2592521 -0.096821442 1.1984923 6.8000002
6.2562666 0.071502909 1.1990554 8.5
6.2448683 0.29178283 1.1995561 11
6.2308092 0.52363217 1.1988678 9.3999996
6.2410707 0.69177014 1.1940496 8.8000002
6.3573694 0.86411279 1.1717464 4.5714288
6.4182491 0.94925714 1.1599468 1
7.7614794 0.97945178 1.1854253 7
7.7601914 1.0495965 1.1842554 5.1999998
4.922616 -7.0219045 1.3046715 7
4.9247684 -6.9062424 1.3135033 9
4.9448256 -6.7222013 1.3267742 14.2
5.0995111 -6.694325 1.3221898 20
5.2219954 -6.6844668 1.3174834 14.5
3.2703843 -6.1626954 1.2017558 2
3.3478534 -5.8471866 1.235148 25.666666
3.3609409 -5.6684647 1.2551345 21.25
3.43297 -5.7066617 1.2475786 2
6.3425655 -1.8329593 1.3296576 24.25
6.332602 -1.7473925 1.3342685 11
6.3237562 -1.4334859 1.3467193 31.5
6.316864 -1.2978349 1.3518013 35
6.3031101 -1.0964702 1.359078 29.09091
6.2822771 -0.89901716 1.366255 30.299999
6.2772412 -0.70600033 1.3705558 38.18182
6.2729549 -0.50779665 1.3739682 40.909092
6.25984 -0.29398271 1.3638216 38.153847
6.2530503 -0.098407775 1.3644322 36.833332
6.2380357 0.099256657 1.3005599 25.950001
6.2295308 0.30089408 1.3151884 27
6.2198606 0.49434358 1.3172388 26.529411
6.1933775 0.72756582 1.3804162 16
6.2169809 0.65964377 1.3786752 34
7.0729427 1.045074 1.2675653 2
3.1336606 -5.9639382 1.4514766 14
3.300473 -5.9456749 1.4482868 47.200001
3.3486259 -5.6686063 1.4696283 9.333333
3.4805572 -5.7437687 1.4593148 4.6666665
6.3487911 -1.8366947 1.5217329 22.75
6.352335 -1.7585168 1.5236939 32.5
6.3303518 -1.4362851 1.5338912 31.75
6.3271523 -1.3013558 1.5371857 35.299999
6.310452 -1.099308 1.5426383 27.818182
6.2917438 -0.89263529 1.5477092 30
6.2805576 -0.69846833 1.5513047 39
6.2686043 -0.49961352 1.5543728 38.25
6.2686849 -0.29401854 1.555775 38.81818
6.2626357 -0.099823833 1.5569634 38.727272
6.2514949 0.09522 1.5579461 37
6.240561 0.29769909 1.5582075 35.083332
6.2274609 0.49951842 1.5579619 34.363636
6.2238431 0.67747593 1.5564741 27.111111
7.1625848 0.93160248 1.4720106 23.333334
7.8196015 1.1410273 1.4123088 55
3.1067224 -6.0289979 1.6686087 1
3.155082 -5.96593 1.6709744 12.2
3.3019102 -5.9545383 1.6690536 35.875
3.4970438 -5.9408288 1.666178 32.222221
3.6471348 -5.928443 1.6638722 23.75
6.3510261 -1.8595163 1.7129897 16.333334
6.3406501 -1.7466711 1.7154598 21.200001
6.3221827 -1.4359736 1.7212064 21.25
6.3103848 -1.2990091 1.7236452 26.299999
6.2998457 -1.0988593 1.7265778 21.09091
6.2813354 -0.89268821 1.7296039 22.727272
6.2751389 -0.69939965 1.7314955 29
6.2634263 -0.50090408 1.733322 31.583334
6.2503328 -0.29481107 1.7348565 31.09091
6.2419362 -0.1011908 1.7356938 30.454546
6.2316966 0.10185588 1.7362269 29.25
6.2234297 0.30374479 1.7362365 28.363636
6.1993484 0.56430215 1.7363315 27
6.2129717 0.48943481 1.7360176 26.9
6.1980448 0.67222524 1.7357035 25
6.2333398 0.6885345 1.7337408 18.25
7.1650128 0.94051373 1.6835245 10
7.7894344 1.1571678 1.6493753 28.25
7.8125658 1.0899534 1.6487733 31.5
2.9871254 -6.6096153 1.8804859 11
3.0107143 -6.6052651 1.880451 21
2.6694889 -6.4476051 1.8845699 8.75
3.0305469 -6.5873446 1.8806604 11
2.7143364 -6.2892442 1.8870829 8.666667
2.8321292 -6.2080593 1.8879555 2
2.7562752 -6.1821256 1.8887234 5
2.8034244 -6.1866193 1.8884442 3
2.8372221 -5.8129168 1.8945875 8
2.9187303 -5.7006297 1.8960664 18.75
2.915982 -5.5012584 1.8994044 15.666667
3.0445535 -5.5063553 1.8986365 18.333334
2.966578 -5.3952827 1.9009053 14
3.0968008 -5.2907333 1.9018904 18.111111
3.2856336 -5.3162236 1.9003162 25.875
6.3132753 -1.4065105 1.9074324 24
6.3086123 -1.3004347 1.9079806 27.6
6.3022022 -1.100886 1.9088856 23.454546
6.2829518 -0.89463675 1.9099076 25.272728
6.2768416 -0.69219744 1.910558 32.727272
6.27034 -0.4941723 1.9110721 35.090908
6.2582049 -0.29704797 1.9115512 33.727272
6.2462416 -0.10270104 1.9118938 30.545454
6.2328725 0.10012866 1.9121271 29.75
6.2224078 0.30188462 1.9121697 28.545454
6.2121964 0.49484321 1.9120811 27.454546
6.1970711 0.63482302 1.9120748 27
6.2238483 0.68805122 1.9114852 21.222221
7.1548438 0.93674862 1.8947794 8
7.8170791 1.1358519 1.8828071 43
5.5499964 -8.4641762 2.1661119 1
5.4424996 -8.396224 2.1642039 1
3.1226983 -8.1654081 2.1464257 1
3.1032057 -7.9004526 2.1418531 1
3.0496593 -6.6069255 2.1197584 15
2.9966569 -6.5945959 2.1193047 15
3.0186007 -6.5844288 2.1192348 15
2.8543835 -5.830924 2.1057966 11
2.8431151 -5.6413288 2.102562 21
2.8577566 -5.5466871 2.1010494 26
5.6931553 -5.4312906 2.1230395 1
2.9105933 -5.3158188 2.0974796 24.545454
3.0976465 -5.2898917 2.0980999 16.625
3.2459106 -5.3217406 2.0995204 21
3.719393 -5.2560716 2.1017425 29.714285
3.826539 -5.2888098 2.1030738 1
5.7225161 -5.3728666 2.1225858 1
5.8312397 -5.388073 2.1240168 1
7.7685385 -4.0157499 2.1343834 4
7.8700876 -4.0141335 2.1358845 15
7.7842255 -3.9938343 2.1344185 13
7.8909273 -3.9949269 2.136024 15
6.3993626 -2.6309447 2.1017127 13
6.408896 -2.7009304 2.1024208 13.857142
6.392427 -2.4814031 2.100456 16
6.4064674 -2.5215864 2.1009796 15.666667
6.3834643 -2.3015425 2.0989988 16.75
6.3669105 -2.1029518 2.0973775 18
6.3474293 -1.8995018 2.0957749 20.333334
6.33708 -1.7058424 2.0944874 25.299999
6.3187852 -1.5038399 2.0931292 24.200001
6.3083797 -1.2994289 2.0920122 28.363636
6.294487 -1.0983741 2.0909724 23.6
6.2792206 -0.90216309 2.0900512 24
6.2667069 -0.69917506 2.0892832 30
6.2599545 -0.50132954 2.0887597 31.636364
6.2501116 -0.30452469 2.0883157 33.363636
6.2411704 -0.10184797 2.0880182 34
6.2311859 0.10098284 2.0878425 32.727272
6.2205873 0.30266589 2.0878005 31.333334
6.1984482 0.59072262 2.0878553 30
6.2093582 0.49528632 2.0878694 30.4
6.1975517 0.68016303 2.0880387 27
6.2261629 0.68437988 2.0885465 21.6
7.794909 1.1569377 2.116873 35.666668
7.8029346 1.0753744 2.1167741 29.5
7.807683 1.2067765 2.1172452 11
4.0385971 -14.671625 2.2608438 1
3.3462999 -14.412848 2.2543514 1
3.2887871 -14.370781 2.2534788 1
3.7800214 -12.853605 2.2288361 3
3.8166487 -12.691084 2.2261832 1
3.8059077 -12.419623 2.2215059 5
3.9074962 -12.365535 2.2209563 11
4.1272407 -12.366788 2.2218316 8.333333
4.2423058 -12.348826 2.2219946 7
4.4478607 -12.172206 2.2199001 42
3.0730283 -6.6103339 2.3600714 14
3.0440304 -6.5658746 2.3574197 18
5.9655709 -5.8905716 2.3970902 1
6.0413947 -5.8772526 2.3990617 1
2.8606257 -5.6353168 2.3078923 23.5
2.8686721 -5.5902233 2.3057466 33
2.9141147 -5.3329372 2.2935817 27.555555
3.0940511 -5.3146076 2.2956982 25
3.2253311 -5.3289189 2.2987688 24.666666
3.6912863 -5.2956648 2.3067236 38.555557
6.3941813 -2.4619441 2.3012457 22
6.4162407 -2.5025647 2.3032172 18
6.3891764 -2.2954397 2.2973845 26.222221
6.3722086 -2.0966368 2.2925 24.777779
6.356688 -1.8948025 2.2879314 26.799999
6.3457546 -1.7004761 2.2840331 29.444445
6.3278041 -1.4987496 2.2799973 27.818182
6.3166084 -1.2939651 2.2766061 33.799999
6.3049788 -1.0931309 2.2736223 27.727272
6.2890825 -0.8965286 2.270828 27
6.2797151 -0.70276207 2.2687688 34.81818
6.2724233 -0.50417805 2.2671607 36.545456
6.2610698 -0.29810134 2.2657185 37.833332
6.2518659 -0.094873279 2.2648201 37
6.2397947 0.099402621 2.2641919 36.090908
6.2288628 0.30140331 2.2640436 35.583332
6.2181334 0.50339407 2.2643249 34.909092
6.220993 0.68172121 2.2655642 26.888889
7.8142262 1.0985533 2.3513968 43.375
7.8020172 1.2033638 2.3516977 19
3.5543675 5.2558584 2.3018217 10
5.3547454 -8.4120178 2.4916964 30.5
5.5028577 -8.4130297 2.4952376 34.833332
5.6287241 -8.4033756 2.4978197 31
5.7141047 -8.3843975 2.4990497 31.5
5.8981566 -8.380208 2.5035069 33.333332
6.0435872 -8.3657112 2.5066121 28.5
2.4966073 -8.0586481 2.4277811 2.5
2.6339235 -8.0175924 2.426852 5
3.0818565 -8.0044775 2.4309344 1
2.729759 -7.993268 2.426517 4.5999999
2.8997848 -7.9760709 2.4274056 3.7142856
3.1065142 -7.9641895 2.4291899 1
3.3091843 -7.971467 2.4321485 1
6.1149778 -5.8823805 2.4017308 1
2.8953366 -5.6474924 2.5158749 22.5
2.9054894 -5.4809704 2.5022261 22.799999
3.0450301 -5.422843 2.5011456 38
3.2510672 -5.4569793 2.5100353 19.666666
3.6319544 -5.4163995 2.5194483 1
2.932333 -5.361414 2.4929528 27.5
3.0952146 -5.358809 2.4973109 23.875
3.3159382 -5.3454962 2.5029883 44.42857
3.4107313 -5.3662944 2.5077693 1
3.7105899 -5.3402953 2.5162914 36.888889
6.2902441 -0.85180759 2.4515364 7.8000002
7.9435396 -0.86151707 2.5947857 54
6.2901764 -0.7507928 2.4501593 11.666667
7.9379025 -0.70708048 2.5927463 71.625
7.920516 -0.50302726 2.5896378 66.222221
7.9053397 -0.30218843 2.5872552 56.5
7.8891397 -0.10374545 2.5853186 58.888889
7.881825 0.095632397 2.5846624 60.875
7.8657894 0.2933495 2.5837691 60.666668
7.8539591 0.50251514 2.5838273 60.444443
7.8410301 0.69962686 2.5842485 57.75
7.8260183 0.89828426 2.5850279 56.444443
7.7863541 1.1755815 2.5853381 50
7.8134737 1.0854057 2.586359 54.714287
7.7998514 1.2017758 2.5869067 24
3.3031979 -14.68578 2.777503 2
2.4533081 -8.0686865 2.7143867 1
2.5416551 -7.9916472 2.7089682 1
2.6954162 -7.9729333 2.7097218 1
2.8928473 -7.9502349 2.7111659 1
3.0901408 -7.9240913 2.7127347 1
3.3064213 -7.9665489 2.7209525 1
3.4494536 -7.9440904 2.7223465 1
5.7378135 -5.6712422 2.6354525 1
2.9325724 -5.5660305 2.7157793 11.666667
3.1019731 -5.5596375 2.7215154 12.6
3.3069942 -5.5521421 2.7291849 10.777778
3.4478846 -5.5441537 2.7345676 8.5
0.31679237 -5.0710058 2.6320145 1
0.31157759 -4.9327068 2.6748765 1
-0.45640811 -4.7540545 2.7973778 20
-0.3709003 -4.7824817 2.7972944 45.666668
8.0823441 -3.2933216 2.667526 17.5
8.0952072 -3.1091628 2.661761 45.714287
8.080472 -2.9023852 2.6533446 45.42857
8.0619946 -2.7004082 2.6451766 45.714287
8.0557003 -2.5068662 2.6386523 47.42857
8.0360126 -2.300468 2.6310513 49.875
8.0273523 -2.1003168 2.6249564 48.42857
8.017683 -1.9037193 2.6193068 54.875
7.9980693 -1.6446636 2.6119204 47
8.0061865 -1.7139058 2.6140704 48
7.9858847 -1.4897982 2.6078491 45.142857
8.0024948 -1.5068312 2.6095672 45
7.9771881 -1.2929717 2.6036406 49.875
2.0694747 4.9716301 2.7993803 1
5.36901 -8.4094667 2.8211813 50
5.4033689 -8.4012566 2.8218787 37
5.3220549 -8.3882046 2.8176951 17
5.50699 -8.3910522 2.8251905 29.4
5.706646 -8.3775902 2.8322792 29.5
5.9087133 -8.3700142 2.8402162 26.799999
6.0373106 -8.3582268 2.8448877 25.5
6.3993053 -8.3335676 2.8593557 6
2.4870768 -8.02635 2.9981103 1
2.6286917 -8.0124893 2.9993286 1
2.5685298 -7.9978113 2.9962821 1
2.6956787 -7.9894657 2.9980288 1
2.8896914 -7.9493747 2.9978664 1
0.31522003 -5.0351276 2.8710935 1
-0.36565971 -4.8043375 2.8003187 54
0.33643624 -4.945178 2.9757972 1
-0.61068368 -4.7767119 2.99297 21.5
-0.49318358 -4.774714 2.9543951 31.416666
-0.35575148 -4.7681313 2.9749386 39
7.9149656 -4.5105681 2.9932351 6
8.0913239 -3.2561512 2.9358592 30.200001
8.0961962 -3.0979738 2.9282789 33.5
8.0777645 -2.9040987 2.9167016 33.857143
8.0684462 -2.7055147 2.9064295 32.714287
8.05795 -2.5103927 2.8967149 37
8.0379333 -2.3037341 2.8859904 35
8.0260096 -2.1025045 2.8770068 37.42857
8.0147591 -1.9054412 2.8688674 40.75
7.9923749 -1.6835804 2.8592603 33.166668
8.0096474 -1.7384391 2.862957 38
7.9885092 -1.4945343 2.853512 35.5
7.9731274 -1.2946086 2.8467181 38.5
7.9652395 -1.0982783 2.8415687 39
7.9483356 -0.90050757 2.8359628 39
7.9311576 -0.69674522 2.8309324 46.444443
7.9193363 -0.49351841 2.8272796 52.75
7.9014053 -0.29275453 2.8236473 47.555557
7.8762197 -0.094248354 2.8198454 48.75
7.8659496 0.10469269 2.8186102 48.555557
7.8566346 0.30227166 2.8182003 47.5
7.8449249 0.49966228 2.8182306 46.555557
7.8384233 0.69697464 2.819602 45
7.8219571 0.89534259 2.8205059 46.111111
7.7823811 1.1251476 2.819937 43
7.8077841 1.0889057 2.822305 45.285713
7.8092985 1.2011161 2.8248117 18
1.9379815 4.9670644 2.9761152 5.1666665
2.1118073 4.9814177 2.9113848 4.1999998
2.2979455 4.9808936 2.934021 14.5625
2.4357727 4.9859629 2.9985037 15.5
2.7374854 4.9976716 2.8281641 17
1.872052 5.010108 2.8006315 1
2.3176942 5.0037189 2.8120828 15
2.745604 5.024025 2.8325443 21.5
2.8939281 5.0356283 2.8415236 48.400002
8.8995495 -9.4896088 3.0691395 11
8.8966904 -9.3138037 3.0570831 11.666667
8.8777056 -9.1629152 3.0458689 12
2.4235063 -8.0805225 3.0034723 1
2.756001 -8.0049334 3.0012786 1
2.9184792 -8.0376387 3.0092409 1
3.0896709 -8.0142498 3.0110283 1
3.2834666 -8.0234222 3.0178528 1
3.5038052 -8.0396204 3.0268712 1
2.782393 -7.9916639 3.0003037 1
2.8892567 -7.992609 3.0030661 1
3.0917518 -7.9838452 3.0074532 1
3.3030062 -7.9651875 3.0115156 1
3.4673734 -7.9755211 3.0180964 1
-0.70622385 -4.9503832 3.0311317 1
-0.61797953 -4.7908688 3.1830177 16.5
-0.49953842 -4.7780852 3.1708703 28.5
-0.34032658 -4.7796869 3.1593976 29.714285
8.1045227 -3.0467703 3.1953161 44
8.0937319 -2.8994086 3.1845219 44.666668
8.077796 -2.7117848 3.1709793 46
8.0616951 -2.5008721 3.1567547 43.75
8.0414486 -2.2942042 3.1429102 46.285713
8.0330486 -2.0939481 3.1319599 44.5
8.0231924 -1.8974829 3.1217248 48
7.9960976 -1.6954532 3.1094334 48.666668
8.0080481 -1.7051353 3.1116233 48.400002
7.9878592 -1.4965845 3.1009469 46
7.984149 -1.2991693 3.0940638 49
7.9692779 -1.1013626 3.0862808 54.75
7.9563503 -0.90400445 3.0796716 56
7.9377356 -0.69950998 3.072932 51.777779
7.9234648 -0.49614835 3.0678215 51.5
7.9123611 -0.29548609 3.0642066 51.555557
7.9005461 -0.096813381 3.0614078 55
7.8847132 0.102666 3.0589223 57.111111
7.8675728 0.30043805 3.0571451 55
7.8581018 0.49828705 3.0575318 54.222221
7.8427153 0.6955626 3.057888 54.25
7.82792 0.89380658 3.0593047 52
7.8175755 1.1050435 3.0626771 49.555557
1.9208539 4.9607859 3.157373 10.1
2.0993438 4.9739347 3.167001 4.9000001
2.2910523 4.9868851 3.1785936 2.5555556
2.4624474 4.9888992 3.167248 9.1111107
2.7174158 4.9912148 3.0140548 17.25
2.2948399 5.0030909 3.1825676 3.5
2.5487833 5.007256 3.1500704 7.75
2.7427495 5.012043 3.0193973 18.75
2.8981128 5.0163665 3.0294783 50
3.3190613 -14.632884 3.2935655 2
-1.7929897 -5.2430577 3.3937969 12
-1.8056351 -5.0401311 3.354805 14
-1.7984136 -5.1491876 3.3756506 12.666667
-1.8124977 -4.8970938 3.3273911 16.6
-0.65270662 -4.8014016 3.3789878 5
-0.52886653 -4.8031125 3.3678586 50.5
-1.8251384 -4.7144403 3.2932436 12.5
-0.62129647 -4.7958341 3.374588 40
-0.48105398 -4.7921948 3.3608708 50.285713
-0.32739517 -4.7827973 3.3453414 48.57143
-1.8345333 -4.5668144 3.2658741 6
7.935729 -4.4765615 3.2809639 20.5
-1.8636165 -4.2167068 3.3965876 31
7.9485288 -4.3825226 3.2744718 1
-1.8747101 -4.111351 3.3756599 36.285713
-1.8805593 -3.9728978 3.3470669 32
8.105032 -3.2655873 3.2098014 38
8.1168528 -3.1536772 3.2040241 47.333332
8.0224152 -2.2503805 3.3964357 35.5
8.0192318 -2.1043417 3.3872359 38.285713
7.9913659 -1.8515476 3.3682914 43
8.0041428 -1.9233793 3.3744609 42.833332
7.9860401 -1.6983764 3.3598003 39.25
7.9788885 -1.4964341 3.3494492 40.375
7.9598818 -1.2957636 3.3379531 46.125
7.9471006 -1.0993874 3.3288417 49.125
7.9322271 -0.9020853 3.3203506 48.375
7.9192023 -0.69935483 3.31319 47.222221
7.9075661 -0.49619168 3.3074231 49.5
7.8885474 -0.29572949 3.3014448 52.444443
7.8719144 -0.098038025 3.2970719 52.375
7.8585391 0.10106897 3.2944906 51.444443
7.8470545 0.29835844 3.2933989 51.875
7.8325558 0.49522379 3.2928793 49.555557
7.8190331 0.70297211 3.2938969 49.777779
7.794692 0.91157073 3.2940667 48
7.8073678 0.89993364 3.2962472 49.714287
7.7881718 1.1049087 3.2985508 47
7.8051739 1.0544324 3.3001726 49
1.7828963 4.9694195 3.3406827 12
1.9237007 4.9673152 3.3450828 33.625
2.0922356 4.974565 3.3542824 37.363636
2.2715297 4.9934263 3.3685057 15.5
2.4851892 4.997807 3.3827839 31.333334
2.3575814 5.0032916 3.3760548 15
2.5054221 5.0099826 3.3873348 34.875
2.6821148 5.0116596 3.2512541 20
2.8927236 5.0233598 3.2238688 30.200001
3.0008128 5.0267138 3.2327318 25
8.9155207 -9.6837816 3.5202796 12.666667
8.9136925 -9.5138016 3.5038676 13
8.9006395 -9.3252363 3.4849377 13.666667
8.8884544 -9.1822529 3.4704757 13
-1.7413983 -5.8901811 3.5199943 8
-1.7562042 -5.6938848 3.4811676 10.6
-1.7731087 -5.4908247 3.4415765 11.2
-1.7819418 -5.3313541 3.4102929 12.666667
-1.8055675 -5.0566516 3.5762081 28.5
-1.8206493 -4.8881912 3.5397146 28.333334
-1.8334857 -4.6876979 3.4961464 29.166666
7.9297042 -4.6791124 3.593255 26.25
-1.8459469 -4.4975905 3.4555123 32.5
7.921051 -4.5030212 3.5725842 26.5
-1.857381 -4.3185325 3.4178112 34.5
7.9055018 -4.2902508 3.5473974 27.166666
7.8923602 -4.0884805 3.524437 30.166666
7.8828254 -3.8917911 3.503257 29.166666
7.8645263 -3.6969054 3.4814408 32.833332
7.8532906 -3.5100286 3.4622328 31.666666
7.8949356 -3.3698936 3.4569411 18.6
8.0816116 -3.3001664 3.4835398 23.166666
8.0898399 -3.1139786 3.4697201 31.714285
8.0737076 -2.906606 3.4506938 35.42857
8.0582457 -2.691879 3.4321649 34.625
8.0501204 -2.4980819 3.4173295 38.5
8.030901 -2.358763 3.404736 35.75
7.9782953 -1.4123559 3.5985022 29
7.9711809 -1.3003401 3.591866 28
7.950994 -1.1020017 3.5792689 27.25
7.9420347 -0.90565294 3.5705523 26.125
7.9358883 -0.70288587 3.5636101 26.666666
7.9209642 -0.49952891 3.5559864 28
7.9030247 -0.29861963 3.5491128 29.222221
7.8856459 -0.10010467 3.5437264 29.5
7.8708324 0.098950535 3.5403147 28.222221
7.8573933 0.29647917 3.5385528 27.125
7.8437185 0.49373218 3.5381153 26.888889
7.830997 0.7024678 3.539515 27.111111
7.7942705 0.97963792 3.5391152 26
7.8176255 0.88888466 3.5415576 27.142857
7.8110175 1.0885803 3.5468757 27
2.7299638 5.0196233 3.4061272 57.857143
2.8985951 5.0348725 3.423867 59.700001
3.0110755 5.0498095 3.4374809 49
6.7255521 -13.228689 3.7602808 7
6.8577113 -13.219464 3.7655621 6
7.1212883 -13.200102 3.7763677 7
6.9549637 -13.197696 3.7678368 8
7.0806651 -13.191297 3.7733614 8
7.3097515 -13.181666 3.7839236 8.5
7.5218925 -13.162234 3.792881 13.25
7.6583281 -13.154022 3.7992792 12
8.285614 -12.154829 3.7274981 2
8.2421055 -11.252359 3.6298809 8
8.3209372 -11.114239 3.6207407 18
8.5073328 -11.101727 3.631912 18
8.6920462 -11.090431 3.6433473 18
8.9128036 -11.077425 3.657362 19
8.9964924 -10.995097 3.6549859 10
8.8326654 -8.2978315 3.7856998 19
8.8204203 -8.0839109 3.7595751 19.666666
8.8119459 -7.9073777 3.7384045 20.333334
8.7962399 -7.7814379 3.7223434 21
8.8095083 -7.7407889 3.7192149 1
-1.7408967 -6.0110826 3.7930984 12
-1.7457632 -5.8938627 3.7655339 15.5
-1.7624261 -5.7015777 3.7216644 18.4
-1.7778978 -5.4961162 3.6749732 20.4
-1.7900021 -5.2982502 3.630146 24.200001
-1.8064108 -5.1593175 3.6000195 24
-1.7999859 -5.1898503 3.6062312 24
7.9583273 -5.0947304 3.6451552 24
7.9489379 -4.905448 3.6218128 25
7.9303713 -4.7671313 3.6031773 27
7.8921218 -3.9003303 3.788286 23.166666
7.8738723 -3.7051795 3.7623415 22.166666
7.8658242 -3.5049841 3.7387431 22.142857
7.8916068 -3.3712885 3.7298737 15.333333
8.0789099 -3.3164754 3.7631021 16.428572
8.093956 -3.1042626 3.7455637 22.625
8.0794802 -2.8976901 3.7234249 24.166666
8.0698071 -2.7129846 3.7052574 23.285715
8.0513849 -2.5012074 3.6839271 24.5
8.0372028 -2.2967753 3.6652162 25
8.0255232 -2.0955369 3.6484413 25.125
7.9974422 -1.8940439 3.6290956 26
8.0134735 -1.8986782 3.6329947 26.166666
7.9904795 -1.6743065 3.6146989 25.4
8.0039377 -1.7516211 3.6220472 26
7.9910998 -1.5049986 3.6059256 26.333334
8.0006762 -1.5650597 3.6110992 25
7.9015121 -0.24223746 3.7968514 49.75
7.8938265 -0.10253736 3.7938747 50.625
7.8916049 0.096923478 3.7932711 56.333332
7.8731365 0.29483733 3.7898629 55.625
7.8590937 0.49250445 3.7892447 55.333332
7.8486905 0.70206708 3.7914882 55.222221
7.8330612 0.90039235 3.7936809 52.5
7.7991714 1.1671734 3.7956867 48
7.8150606 1.0898449 3.796463 47.125
3.3175621 -14.658614 3.8185344 1
7.7475529 -13.155285 3.8042758 10
7.9108081 -13.140681 3.8117099 11.75
8.1005821 -13.110166 3.8191032 12.333333
8.3068905 -13.112244 3.8312697 12
8.5077715 -13.10777 3.8426647 21.333334
8.6790819 -13.090862 3.8511956 22.666666
-0.39989495 -11.817542 3.8887899 1
3.1156669 -11.840775 3.8998032 5.8000002
3.2611544 -11.822062 3.9006791 7
-0.30043402 -11.691139 3.8668892 10.333333
3.3408208 -11.791834 3.898176 7
3.4815464 -11.757238 3.8969245 6.5999999
3.6851318 -11.711856 3.8962989 7
3.888427 -11.663625 3.8957982 7
4.0273337 -11.615822 3.8934832 7
4.1235023 -11.579057 3.8915014 7
4.2846475 -11.536528 3.891418 7
4.4825387 -11.470284 3.8896661 7
4.6453643 -11.433261 3.8912928 7
4.7572379 -11.372045 3.8872254 6.3333335
4.905324 -11.357868 3.8922317 1
5.104383 -11.297817 3.8932745 1.3333334
5.2270126 -11.203856 3.8856614 7
5.3164921 -11.152245 3.8828454 7
5.4929876 -11.090949 3.8836589 7
5.6282859 -11.040745 3.8840971 7
5.7366419 -10.979487 3.8815942 7
5.9069571 -10.905352 3.8812809 7
6.0708933 -10.818014 3.879091 7
6.169508 -10.779695 3.8800297 7
6.2969837 -10.713223 3.879091 6.8333335
6.4590607 -10.623748 3.8775265 6.3333335
6.5557485 -10.584227 3.8787782 7
6.6995187 -10.503329 3.8778393 6.8333335
6.8444085 -10.415177 3.8762753 6.5
6.947155 -10.356499 3.8759623 6.25
7.1048117 -10.26052 3.8750236 6.1999998
7.2392077 -10.159129 3.8718951 4.6666665
-0.052068353 -9.8686857 3.9336586 1
0.077306077 -9.8078604 3.9189281 1
0.18170726 -9.7869997 3.9126694 1
2.757199 -9.7436533 3.9180121 7
2.8933849 -9.7227392 3.9183939 8
3.0940914 -9.680974 3.9175034 8.166667
3.2960942 -9.6379137 3.917249 8
3.4481802 -9.607728 3.9180121 8.5
3.52039 -9.5803757 3.9161041 8
3.6909611 -9.5221796 3.9132416 8.666667
3.890209 -9.4691782 3.913496 8.666667
4.0491996 -9.4209356 3.9131782 9
4.1417756 -9.3814268 3.9111428 9
4.3087468 -9.3180733 3.9094257 8.833333
4.5033588 -9.2498264 3.909235 8.833333
8.5123672 -9.282239 3.871582 1
4.7014894 -9.1456604 3.9036195 4.2857141
4.902597 -9.054615 3.9015391 3.5
5.0314536 -9.0088425 3.9029384 2.5
8.5873365 -9.1798077 3.8662634 7
8.7098455 -9.1335287 3.8728337 6.75
8.8353128 -9.0608511 3.8766925 10.333333
5.1284533 -8.93577 3.8974049 7.4000001
5.2963104 -8.8517199 3.8959415 9
8.8671656 -8.9109182 3.8618832 19
5.4890866 -8.7457571 3.8934798 7.8571429
5.6702013 -8.6526966 3.8931308 8.1999998
8.8570318 -8.7129297 3.8371665 19
5.7753496 -8.5959015 3.8928254 7
5.9027457 -8.5125341 3.8904266 7.2857141
6.0291657 -8.4287739 3.8882458 6.5
8.8506479 -8.5239763 3.8141186 19
0.17849284 -8.2601318 3.9215319 1.5
0.30810937 -8.271306 3.9206963 3.8571429
0.43363947 -8.3170547 3.9282804 1.5
0.91371298 -8.2810965 3.9129839 0
1.1434232 -8.3130989 3.9192822 0
1.2159405 -8.3152466 3.9197323 0
1.6650876 -8.3191404 3.9236314 0
1.8822863 -8.3160095 3.9263685 0
2.5260804 -8.2239542 3.9231815 5
2.5806813 -8.1978722 3.9192824 9
2.6935883 -8.1736078 3.9183183 9
2.8927982 -8.1383772 3.9191539 9
3.0928543 -8.102766 3.921082 8.8571424
3.302413 -8.0483503 3.9205198 8.875
3.4414721 -8.0064468 3.9195075 9
3.5381329 -7.9752092 3.9187424 9
3.7022617 -7.9176679 3.9170971 9
3.8910339 -7.8457961 3.9149764 9
4.0161695 -7.8093596 3.9165831 9
7.0745115 -7.8497066 3.9058003 1
4.1196046 -7.7551761 3.9131336 9
4.3040652 -7.6742353 3.9112406 9
4.4357004 -7.6154394 3.9102845 9
7.1434097 -7.7197714 3.8938174 2.4000001
7.2233076 -7.6213589 3.8882461 7
4.534492 -7.556232 3.9068348 8.666667
4.7108803 -7.4908137 3.9099631 2.5714285
4.8439217 -7.4381433 3.9122341 2.3333333
7.318274 -7.5255189 3.8853018 3.7142856
7.5117655 -7.4418435 3.8967941 1
4.9359832 -7.3626986 3.9061456 6.1999998
5.0931025 -7.2576056 3.9014549 9
5.2086363 -7.2050567 3.9035358 11
7.6558838 -7.2972484 3.8939157 3.5714285
2.1936884 -7.1155066 3.925096 1
2.3045187 -7.0989189 3.925096 11.625
2.5009205 -7.0631099 3.9244494 12
2.6982551 -7.030561 3.9261961 12
5.2648354 -7.1583071 3.9004989 8.75
7.7705631 -7.1454992 3.8869104 8
7.8656816 -7.0487475 3.8857656 7
2.8912783 -6.976954 3.9236724 12
3.0966153 -6.9236088 3.9236004 11.888889
3.2990761 -6.8572035 3.9216022 12.125
3.4269557 -6.8072901 3.9191432 12.5
7.954288 -6.9698615 3.8865921 7.6666665
8.0510454 -6.8750353 3.8866432 6.5999999
3.5180237 -6.7753205 3.9188104 12
3.6963837 -6.7085881 3.9180434 12.25
3.8695862 -6.6393576 3.9174793 12
6.0881634 -6.6083846 3.8976872 3
3.9717762 -6.593781 3.9165552 12
4.0935335 -6.5316892 3.9142828 11.777778
4.2709584 -6.4408979 3.9120076 11.857142
6.1523104 -6.5505552 3.8958879 10
6.2786884 -6.4542465 3.8961127 9.833333
-1.7537761 -6.2860403 3.8610382 6.75
4.3697639 -6.3882504 3.910861 11
4.4874849 -6.317873 3.9084167 9.7777777
4.6532707 -6.2350173 3.909826 4
6.3742161 -6.3918896 3.8985868 10.5
6.4869885 -6.280704 3.895438 10
-1.7542714 -6.1194839 3.8207922 8.5
4.7346373 -6.1793642 3.9074965 4
6.6940522 -6.1060476 3.8964272 9.5
6.8116074 -6.0008912 3.8967872 9
8.6760893 -6.0778718 3.872854 16
6.906848 -5.9137492 3.8974061 9.25
7.0122919 -5.8163576 3.8983622 10
8.6715183 -5.9030547 3.8509235 20
5.4879293 -5.6547689 3.9016082 13
7.1178184 -5.6992888 3.8968871 9.333333
8.6551847 -5.7641006 3.8317666 19
5.5842972 -5.5754375 3.9005084 13
5.7009864 -5.4844756 3.901181 12.7
5.8145447 -5.4105806 3.905426 12
7.2962198 -5.5138602 3.8977869 3.3333333
7.4045105 -5.4182625 3.9017363 3
5.9010129 -5.3209257 3.9025502 12.444445
6.0140071 -5.2242355 3.903528 12
7.5448298 -5.235868 3.8991868 8
6.1191001 -5.118793 3.9023199 11.111111
6.2276645 -5.0171294 3.903183 11.333333
7.5807562 -5.1910486 3.8990369 10
7.6437163 -5.0944281 3.8964658 10.142858
6.338069 -4.916986 3.9056559 11.444445
6.4349656 -4.8213959 3.9069788 11.5
7.7541337 -4.944262 3.895438 10.333333
7.8525038 -4.8386164 3.8991494 11.75
6.5157738 -4.7278299 3.9062669 11.125
7.925384 -4.6974111 3.8939593 25
6.7350726 -4.4902043 3.9098258 11.125
6.8043318 -4.4022603 3.9095669 12
7.9320517 -4.4967337 3.8690732 33
6.8805804 -4.3040094 3.9097395 12.111111
7.9173617 -4.3011203 3.8415241 31.5
6.9694042 -4.1686697 3.9072375 11
7.0425315 -4.0682368 3.9076691 11
7.9057603 -4.0998683 3.8146055 33.166668
7.1306176 -3.9485986 3.9091351 11
7.2464957 -3.8594837 3.9220939 11.8
7.3254747 -3.7183738 3.920114 10
7.3658171 -3.5526512 3.9067719 4.4000001
7.4227929 -3.4431152 3.9056327 9.3999996
7.4888411 -3.2951255 3.9024494 12.625
7.5572014 -3.13642 3.8994732 13
7.6118813 -3.0391133 3.9012849 12
7.6754513 -2.9047639 3.9017448 12.555555
7.7586288 -2.6982331 3.9003644 13.333333
7.8332934 -2.5025649 3.8997319 13.5
7.9110107 -2.3090057 3.9017448 13.666667
7.9779892 -2.1346889 3.9041317 17.833334
8.0144796 -2.0301964 3.9052534 25
8.0200882 -1.9030306 3.8972917 44.285713
8.0135746 -1.7103144 3.882391 49.125
7.9921284 -1.4797997 3.8627207 45
8.003973 -1.5302501 3.8686736 46.5
7.9886222 -1.3114473 3.8527007 48.42857
8.0020294 -1.2717365 3.8541799 48
7.9726529 -1.1079658 3.8389091 49.5
7.9539685 -0.89768833 3.8257098 48.888889
7.9458871 -0.69452775 3.8171685 46.375
7.9311762 -0.5026316 3.8086925 52.75
7.9206762 -0.3487142 3.8032441 53.599998
6.5739136 4.5681686 3.8898966 7.6666665
6.5145373 4.6623902 3.8943832 9.833333
-1.4037466 8.0999975 3.9642725 3
-1.3655212 8.1244335 3.9669719 1.5
